NCOLS 746
NROWS 32
XLLCORNER 35200
YLLCORNER -1535237
CELLSIZE 80.000000
NODATA_VALUE -99999
126 127 127 129 130 130 130 130 130 129 129 129 127 128 128 127 128 129 127 127 128 129 129 131 132 131 132 133 133 134 134 134 134 135 136 138 138 139 138 138 138 138 137 136 136 137 135 137 136 137 137 137 139 138 138 138 140 141 141 143 143 144 145 145 145 145 145 145 145 145 145 146 147 146 147 147 147 148 149 148 147 149 149 148 150 152 152 152 152 153 154 154 156 157 156 156 158 158 157 156 154 155 156 157 158 159 159 160 163 164 166 165 163 161 159 159 160 161 160 158 158 157 157 159 160 160 160 160 160 159 158 157 158 155 154 154 154 154 154 154 154 155 155 154 153 151 152 152 151 153 154 153 153 153 150 150 149 147 146 145 145 145 144 144 142 141 140 140 140 140 140 140 141 141 140 141 141 141 141 141 142 144 145 146 148 147 145 144 143 141 139 139 139 139 140 139 137 136 135 137 138 139 139 137 137 139 139 139 141 143 143 140 139 139 140 143 144 143 141 140 139 139 138 140 141 142 141 140 139 138 141 147 149 148 149 148 149 149 148 147 145 145 145 148 151 155 156 156 156 156 159 161 163 165 168 169 171 174 175 176 178 181 184 185 182 177 171 166 162 161 158 155 154 153 154 152 149 149 152 156 159 159 159 158 159 162 167 171 175 177 175 173 172 171 172 171 169 167 164 165 165 165 166 170 175 177 180 187 197 203 206 205 197 188 185 187 192 192 191 193 201 208 212 217 220 221 223 225 225 225 226 227 228 228 229 230 230 229 227 228 229 231 233 235 236 236 236 235 234 233 232 232 233 235 234 234 233 232 232 234 235 235 235 235 236 236 235 235 235 235 236 237 238 238 238 240 240 240 241 240 241 242 240 241 243 244 245 245 243 243 243 243 243 244 244 243 244 244 244 242 241 240 240 239 238 239 240 239 239 238 238 238 237 238 238 238 236 235 235 235 235 235 233 224 217 222 227 227 221 219 220 226 233 237 237 238 239 238 239 239 240 239 238 238 236 235 235 236 231 220 211 209 207 204 204 205 206 206 207 213 222 226 229 232 234 237 239 240 241 242 242 243 244 245 247 248 247 245 245 246 248 250 250 248 246 245 244 245 244 243 245 248 249 249 251 249 247 245 244 244 245 247 249 252 256 259 261 265 267 269 268 266 268 269 269 269 269 269 269 268 268 268 268 268 268 267 267 267 267 267 266 265 263 263 262 262 259 257 255 254 253 251 247 246 246 245 246 247 247 247 248 250 250 251 251 251 250 247 242 240 241 243 241 240 241 243 245 248 250 253 253 253 255 255 256 254 251 251 250 251 248 243 241 243 246 248 249 250 251 250 250 252 252 252 250 247 245 244 246 249 249 249 248 249 251 253 255 257 260 261 261 262 263 265 267 269 272 277 279 280 279 276 275 273 268 264 260 260 260 260 258 255 253 250 245 246 250 254 255 253 253 251 246 240 239 246 250 253 257 261 262 262 262 261 262 265 265 263 265 267 266 263 265 268 270 268 268 267 267 266 263 260 259 258 259 261 262 259 256 253 248 241 234 234 239 241 240 235 235 245 251 253 253 255 255 254 253 253 255 254 250 249 254 260 259 255 252 254 259 262 262 261 260 257 252 250 251 255 261 267 265 260 260 259 253 250 252 257 259 259 255 251 253 257 259 260 260 261 264 264 264 265 264 263 263 263
127 128 126 127 130 129 129 129 129 128 128 127 126 127 127 128 128 128 126 126 127 128 128 129 130 130 132 133 133 133 132 133 135 136 136 137 137 137 138 138 137 137 137 136 136 137 136 137 136 137 136 136 139 139 139 139 140 141 142 144 143 142 143 145 145 144 145 145 145 145 146 147 146 146 147 148 148 149 149 149 149 151 150 148 149 152 152 151 152 154 154 155 156 157 157 158 160 158 157 156 155 155 155 158 160 160 159 161 163 163 163 163 163 162 159 158 158 159 158 158 157 157 156 157 159 160 160 163 162 160 160 159 159 157 155 154 154 156 155 155 155 154 155 153 152 152 153 153 153 154 154 153 152 153 152 150 148 147 147 145 144 144 142 143 143 141 140 141 141 141 142 142 142 142 141 141 142 141 142 143 144 145 145 146 147 146 146 144 142 139 138 138 139 140 142 141 139 136 137 139 141 141 140 139 139 139 141 141 142 143 144 144 143 142 141 144 146 145 144 143 140 140 140 140 142 142 141 139 137 139 141 144 146 146 147 145 145 145 145 144 143 143 145 148 152 156 159 160 159 157 160 163 163 165 167 170 171 173 176 179 181 183 185 186 184 179 173 167 163 159 158 157 155 155 155 154 150 150 153 155 156 156 154 152 153 156 164 169 171 172 172 171 169 170 170 168 166 164 165 166 166 166 167 170 173 177 185 193 198 199 200 197 189 184 182 182 184 188 196 202 209 215 217 220 221 220 222 224 224 225 226 227 227 228 227 228 228 225 222 227 229 232 233 234 235 235 235 233 233 231 228 229 231 232 234 234 234 232 232 233 234 234 235 235 235 235 234 235 235 236 235 236 236 238 239 240 240 241 241 240 239 241 241 241 242 243 244 244 244 243 244 243 243 244 244 242 243 243 242 241 241 240 240 239 239 240 240 240 239 240 239 237 238 238 239 239 238 236 235 235 234 233 231 225 217 215 215 215 213 212 214 219 229 235 235 236 237 238 240 239 240 239 238 236 235 234 234 234 228 215 209 208 205 204 204 204 205 208 215 226 233 235 235 234 233 235 238 239 240 239 240 240 242 243 244 246 247 247 247 248 249 251 250 248 247 248 249 248 247 246 245 247 249 252 255 253 251 248 247 246 245 246 247 250 252 254 256 259 266 270 270 268 267 269 269 269 267 268 268 269 269 268 268 267 267 268 268 267 266 264 265 264 262 261 260 259 258 256 254 253 252 251 251 250 248 246 246 247 247 247 247 247 249 250 250 251 251 248 242 239 239 240 238 239 242 244 247 250 251 253 254 254 255 254 255 254 251 249 249 249 247 243 240 241 244 246 246 247 247 248 249 250 250 249 247 244 244 244 246 249 250 250 250 251 252 253 254 256 258 260 262 262 263 265 267 269 273 277 280 280 280 278 276 273 270 266 263 264 265 265 264 261 258 251 246 245 244 250 254 253 252 251 248 240 239 247 251 252 256 260 263 261 258 257 260 264 263 260 261 266 264 262 266 269 270 269 267 266 265 265 262 259 256 254 254 257 260 261 260 256 253 249 240 234 233 235 235 232 237 248 251 252 253 254 254 253 251 251 252 251 248 250 255 257 254 253 254 256 260 260 260 259 257 254 251 249 251 256 263 267 264 260 258 254 250 250 255 258 257 255 252 252 254 256 258 259 260 262 263 265 264 264 263 263 263 262
128 129 127 126 129 129 129 128 128 127 126 125 126 126 127 126 127 128 128 127 127 128 128 129 128 129 132 132 133 134 133 134 136 137 137 137 137 136 137 137 137 137 138 137 136 136 135 136 137 136 137 138 139 140 140 140 140 140 141 143 142 141 141 142 143 144 145 146 145 145 147 147 145 147 147 148 149 148 148 149 150 149 148 148 149 151 152 152 153 153 154 155 155 156 158 160 161 159 157 158 157 157 156 158 160 161 160 161 162 161 161 161 161 160 159 158 158 156 155 155 156 156 155 156 158 158 160 163 163 161 161 161 159 157 156 155 156 157 157 157 156 155 154 153 153 152 153 153 153 153 153 154 153 151 151 149 148 148 147 146 146 144 143 142 141 141 141 141 141 141 141 141 143 142 141 142 143 143 145 145 145 145 145 146 146 145 145 143 142 140 139 140 139 140 142 142 140 139 139 140 143 143 142 143 142 141 141 142 143 144 145 146 144 144 143 144 146 147 145 144 143 141 141 141 142 142 139 138 138 140 142 144 145 145 144 143 142 142 142 142 143 143 144 147 151 154 158 160 160 161 163 165 165 167 169 172 174 176 179 182 185 186 187 187 185 180 173 168 164 161 163 163 161 159 158 157 151 150 151 150 151 152 154 156 153 155 162 166 169 171 172 170 167 167 167 165 164 165 168 169 168 170 171 170 172 176 182 186 187 186 186 184 183 182 181 183 186 194 205 208 212 216 219 220 221 221 222 223 224 224 225 225 227 227 227 227 226 222 217 220 225 229 231 232 233 234 233 231 231 227 224 225 226 228 232 232 230 229 231 234 235 235 234 234 234 235 236 235 236 235 235 235 235 235 237 239 240 241 241 241 240 241 242 242 242 243 243 242 244 243 243 243 243 242 243 243 243 242 242 241 241 241 241 241 239 238 240 240 240 239 239 239 240 240 240 239 239 240 237 235 233 233 231 229 225 219 215 213 211 209 210 214 222 229 231 234 236 238 239 239 239 239 235 228 227 230 232 230 222 212 207 205 205 204 204 205 208 217 227 234 236 237 237 237 236 235 236 237 237 238 239 240 241 242 243 245 245 246 248 249 250 251 251 250 250 253 255 253 250 247 247 248 250 255 255 255 255 253 251 249 246 246 247 248 249 251 254 257 264 269 269 267 266 267 267 269 268 268 268 268 268 269 269 268 268 267 266 265 265 265 264 263 262 260 259 259 258 256 254 254 253 252 252 250 249 248 245 246 247 247 247 246 247 248 249 249 248 246 242 240 239 238 237 240 244 245 248 250 252 253 253 254 254 254 254 253 252 250 249 248 246 243 241 240 241 243 244 245 245 246 247 248 246 245 243 243 244 245 246 249 249 251 251 252 253 253 254 257 259 260 262 264 266 270 270 270 273 277 280 281 281 280 278 274 272 270 268 268 269 269 269 266 263 258 255 251 246 247 250 250 250 249 246 239 239 247 251 254 257 260 261 259 255 256 260 262 259 256 259 263 263 262 265 269 270 270 267 264 264 264 262 259 257 253 250 251 257 261 261 258 256 253 247 240 234 233 233 235 242 248 247 248 250 251 251 251 249 247 247 245 245 250 253 251 250 253 257 259 259 259 259 257 254 252 249 248 251 259 265 265 263 262 260 254 249 251 255 257 256 252 251 254 256 258 260 262 262 263 263 264 264 265 264 264 264 264
127 127 127 126 127 127 127 128 128 127 125 124 124 124 125 125 125 127 127 127 127 128 128 129 128 128 130 130 131 133 134 135 135 137 137 137 137 136 136 136 136 136 137 137 137 135 135 135 136 136 138 138 140 140 139 139 140 139 139 140 140 140 140 141 142 143 144 145 145 145 147 147 146 148 148 148 148 148 148 149 150 150 150 150 151 151 152 153 153 154 156 157 157 159 160 164 164 161 159 159 159 158 157 159 160 162 162 160 160 160 160 160 160 159 159 158 157 156 155 154 156 156 155 156 157 157 160 162 161 161 161 161 159 158 157 156 157 159 158 157 157 156 155 154 153 153 153 153 153 153 154 154 153 151 150 149 148 148 147 147 147 145 144 142 141 140 141 141 141 141 141 141 142 142 142 143 144 144 146 146 146 146 146 147 146 144 144 143 142 141 140 141 140 141 142 142 142 141 141 141 142 143 144 145 144 143 143 143 144 145 146 146 146 146 145 145 146 147 147 146 144 142 141 140 142 142 140 138 138 141 144 145 145 143 143 142 141 141 141 141 141 142 143 147 150 152 156 158 158 161 164 165 166 167 170 173 175 178 181 183 185 188 188 188 186 182 176 170 166 164 169 170 167 164 161 157 153 151 151 151 152 156 159 158 154 155 161 165 169 173 174 171 166 165 164 164 165 167 170 170 171 173 174 173 173 174 175 175 177 177 178 183 188 187 187 190 194 202 209 211 214 217 219 219 220 221 221 222 222 223 224 224 225 226 226 227 226 221 215 216 220 225 229 231 232 231 230 229 229 225 222 222 222 226 229 227 225 226 230 234 235 235 235 234 233 234 236 236 236 236 235 236 236 235 237 238 239 240 239 240 241 241 242 243 242 242 242 242 243 243 243 243 242 241 241 243 243 243 242 241 241 240 240 241 239 238 239 239 239 240 240 241 242 242 241 240 239 240 239 237 234 234 234 234 232 227 222 220 216 210 209 209 213 217 222 230 234 237 238 238 238 237 233 222 218 221 223 221 215 208 205 204 203 203 203 207 214 224 233 236 236 238 239 239 239 237 238 237 238 239 239 239 240 240 242 243 244 245 248 250 250 252 252 252 252 257 260 259 255 250 248 248 252 256 257 258 258 256 254 253 249 249 249 249 248 251 253 258 264 267 267 267 266 266 267 269 268 268 268 268 267 268 269 268 267 267 266 266 266 264 264 263 261 260 259 259 258 257 255 254 253 251 251 250 250 247 246 246 247 247 246 246 246 247 248 248 247 244 243 240 238 237 238 242 246 247 249 251 252 253 253 253 253 253 254 253 253 252 250 248 245 244 242 239 239 241 242 243 245 245 244 245 243 242 242 243 245 245 246 249 250 251 253 254 255 254 256 257 259 261 263 265 270 274 273 272 273 277 280 281 282 281 279 277 275 272 269 268 268 268 268 266 265 262 259 256 250 246 245 245 247 247 245 238 239 246 250 253 256 258 259 256 253 256 260 261 256 254 257 258 258 261 265 269 270 270 268 264 263 263 263 262 261 258 253 249 253 259 261 259 257 254 250 247 238 231 231 238 245 247 243 244 246 248 248 249 249 245 242 241 245 249 248 246 248 254 259 261 259 257 257 257 254 250 248 249 253 259 262 265 262 258 257 253 248 251 255 254 252 249 250 253 254 258 261 261 261 262 262 264 264 265 265 263 264 265
125 125 124 124 124 125 125 126 127 126 125 124 123 123 123 124 124 125 125 126 126 127 129 128 127 127 128 129 129 132 133 133 133 136 137 138 137 137 137 135 137 136 135 135 136 134 134 134 136 137 137 137 138 138 138 138 139 140 138 138 139 138 139 141 142 142 143 144 144 145 147 146 146 147 148 149 150 149 148 148 149 151 152 153 153 152 152 152 154 155 157 158 159 160 163 166 166 164 163 160 160 160 159 159 159 160 160 157 157 159 159 159 159 158 158 158 157 156 154 154 154 154 155 155 156 157 159 160 159 159 158 158 159 159 157 156 158 160 159 159 159 159 157 156 156 154 154 153 154 154 153 153 153 152 151 150 149 148 148 149 148 146 145 142 141 140 141 141 141 140 139 141 141 142 143 144 146 145 146 146 147 148 148 148 146 145 144 143 142 141 141 141 142 142 144 144 143 143 142 142 143 144 144 146 145 144 145 145 146 147 148 148 148 149 147 147 147 148 149 147 146 143 141 140 140 141 140 138 138 139 140 142 141 140 141 141 141 142 142 141 141 142 144 147 150 152 154 155 156 160 162 164 165 167 169 172 175 178 181 182 185 187 187 187 188 185 180 174 169 168 174 176 172 167 163 159 156 155 153 152 153 157 160 159 154 155 160 167 172 177 176 170 164 164 166 169 168 167 170 172 175 179 182 181 177 174 173 173 175 178 183 194 199 198 198 199 202 207 210 213 216 217 218 218 219 219 220 221 221 222 224 224 224 225 226 226 224 219 213 213 217 221 224 227 228 228 229 228 226 224 221 221 221 222 225 223 220 223 229 231 232 234 234 234 232 233 234 234 235 235 235 235 235 236 237 239 238 239 239 240 240 240 241 242 242 242 242 243 243 243 243 243 242 242 242 242 241 242 242 242 240 239 240 241 239 238 239 240 240 240 242 242 244 243 242 241 241 240 239 238 237 236 235 234 234 233 230 230 227 217 210 206 207 210 215 227 233 236 238 238 237 237 235 225 215 213 213 211 209 206 203 204 203 203 206 216 224 229 235 237 237 240 241 241 239 240 240 240 239 239 239 239 239 239 240 242 243 245 247 248 249 250 251 253 255 260 262 262 258 254 251 251 254 257 258 259 259 257 257 256 252 251 253 251 250 250 251 258 262 263 265 266 266 266 267 268 268 268 267 268 268 268 267 267 266 265 265 264 266 263 263 263 261 261 260 260 259 257 255 254 252 250 250 250 249 247 246 248 248 248 247 246 245 246 247 248 246 244 243 239 236 238 241 244 247 249 249 250 251 253 254 254 253 253 253 253 252 252 252 249 246 244 242 239 239 239 240 241 244 245 242 241 242 241 242 244 246 247 248 250 251 252 254 256 258 258 259 259 259 262 263 266 272 275 276 275 276 277 280 281 281 280 279 278 275 270 268 267 265 266 265 264 264 263 261 258 254 251 245 242 242 243 242 237 239 246 250 252 254 255 255 251 251 256 258 259 255 252 253 254 256 261 265 268 269 270 268 265 261 259 262 263 264 262 259 253 249 254 259 260 258 253 251 249 238 228 229 237 243 243 239 241 245 246 245 245 247 244 238 238 245 246 245 245 250 256 259 261 259 256 254 256 254 250 248 249 254 256 260 265 263 257 254 250 248 251 254 252 248 246 247 250 253 258 259 259 260 260 261 262 262 263 264 263 264 265
123 124 125 124 123 125 125 125 126 125 123 122 123 123 123 122 124 125 125 125 126 127 129 127 126 127 127 129 129 129 131 132 134 136 137 138 137 137 137 136 137 135 134 134 134 134 134 134 135 136 137 137 138 139 138 137 138 140 138 137 138 138 139 141 142 142 143 144 145 144 145 144 145 146 148 150 151 149 149 149 148 152 154 155 155 154 154 154 155 156 157 158 159 161 165 169 170 169 167 163 162 161 161 160 159 158 157 156 155 156 158 157 158 158 159 158 157 155 154 154 154 153 154 154 156 158 158 158 158 157 157 157 157 157 158 157 158 160 160 160 162 161 159 158 158 157 155 154 155 153 153 152 152 152 151 151 150 149 150 151 149 146 145 143 142 141 140 141 142 141 140 142 142 143 144 146 147 146 146 146 147 148 148 147 147 145 144 143 142 141 141 142 142 143 144 144 144 145 144 143 144 145 146 147 146 146 147 146 147 149 151 151 150 150 149 149 149 149 149 147 146 144 142 140 139 140 141 140 140 140 140 139 140 139 140 140 141 142 142 141 141 143 146 149 150 151 152 153 154 158 160 162 163 165 167 171 174 176 178 180 182 184 185 186 187 187 185 180 173 173 178 179 175 169 164 160 158 156 154 152 153 157 161 161 154 157 163 169 175 178 175 166 163 165 170 175 174 170 172 175 180 189 192 189 183 179 178 177 175 178 186 199 205 205 205 206 207 209 211 215 217 217 216 216 218 220 219 221 221 222 224 224 224 225 226 225 221 215 211 210 213 216 218 221 223 225 226 225 224 222 220 219 219 220 220 218 217 221 226 227 229 232 233 234 233 232 233 234 234 235 235 234 235 235 236 238 238 238 239 239 240 241 242 241 241 241 241 242 242 243 242 242 242 242 242 242 240 240 241 241 240 239 240 241 239 238 238 239 240 240 241 241 243 244 244 242 242 241 240 240 239 238 238 236 236 235 234 234 233 227 218 208 206 206 211 223 231 235 236 237 236 235 235 230 216 209 208 207 206 205 204 204 204 205 213 227 231 233 236 237 237 239 241 242 241 241 242 242 241 240 240 240 240 241 242 243 244 246 246 247 248 249 250 253 257 261 263 263 260 256 254 254 256 257 259 260 260 260 261 258 254 255 257 253 251 252 253 256 258 261 264 265 266 266 266 267 268 268 267 267 268 268 266 267 266 265 264 263 264 262 262 262 263 263 262 262 260 257 256 254 251 249 249 249 247 246 247 249 249 248 248 246 244 244 246 247 245 244 243 239 236 238 241 245 247 249 249 250 251 253 253 253 253 253 252 252 251 250 251 249 246 245 242 241 240 239 239 239 241 242 241 240 240 242 243 245 247 248 249 250 252 254 256 260 262 260 260 261 262 262 263 266 270 273 276 277 277 278 280 279 277 278 277 276 274 270 267 265 262 262 262 262 263 263 261 258 255 253 250 246 244 243 239 234 237 244 249 252 252 252 251 248 251 256 256 256 253 249 249 252 257 260 264 268 269 270 269 266 261 258 258 261 262 262 261 258 249 248 255 258 256 250 249 247 235 225 228 234 236 236 237 242 246 245 243 241 244 243 237 237 242 245 248 250 254 258 259 259 259 256 253 256 255 250 247 248 251 253 259 265 266 261 256 251 248 248 251 249 245 244 249 253 254 254 256 257 259 259 260 259 260 261 263 264 264 264
121 123 124 123 125 126 125 125 125 123 122 121 123 124 124 123 124 125 125 125 127 128 128 128 128 128 128 128 130 131 131 132 134 136 135 136 136 135 135 137 136 135 134 134 133 134 135 134 135 136 137 138 140 140 139 138 138 139 137 137 137 138 139 140 141 142 143 143 144 144 144 145 145 146 148 150 151 150 150 149 147 151 153 156 156 155 156 157 156 156 158 158 159 161 165 170 172 171 167 166 164 163 161 158 158 158 156 155 153 153 154 154 156 157 157 156 154 153 153 154 153 153 152 153 155 157 158 157 156 156 157 157 157 157 158 158 158 159 161 162 163 163 162 161 160 159 158 156 155 154 153 152 152 151 151 151 151 151 150 150 149 148 147 145 142 141 141 142 142 142 142 144 143 144 145 147 148 147 146 147 148 148 147 146 146 144 143 143 143 141 141 141 141 143 145 145 144 144 145 145 146 146 147 148 148 148 149 148 149 151 153 152 152 151 151 151 151 152 150 148 145 144 142 140 140 141 142 143 143 143 143 143 145 144 142 142 142 142 141 140 140 143 146 147 148 150 150 150 152 155 157 159 160 160 162 167 170 172 175 177 179 182 184 185 187 188 187 182 176 177 181 182 178 175 168 160 158 156 154 154 156 158 161 162 157 159 168 175 179 176 168 163 164 170 174 177 177 176 176 178 185 195 200 196 191 188 189 187 182 181 183 191 200 205 206 208 208 210 213 214 216 216 216 217 218 218 219 220 219 221 223 222 223 223 223 222 218 213 210 208 211 212 213 216 217 219 221 222 222 220 218 217 217 216 216 215 215 219 222 223 226 228 229 231 232 232 233 232 233 235 235 234 234 234 235 236 237 238 238 238 238 240 240 241 241 241 241 242 242 241 242 242 241 240 240 241 240 241 241 241 240 241 241 241 240 239 239 239 238 240 240 240 241 244 245 243 242 242 241 240 239 240 240 239 237 236 235 234 233 231 224 212 208 206 206 212 219 225 228 231 232 230 230 224 213 206 205 205 204 205 203 203 205 209 219 231 234 234 235 237 239 240 241 241 242 242 243 243 242 240 241 241 242 243 243 245 246 247 248 248 249 251 253 254 256 258 261 261 259 257 257 257 260 259 258 259 260 261 261 259 257 258 257 254 254 257 259 257 258 261 264 265 265 265 266 267 267 267 267 266 267 266 265 266 267 265 264 262 262 261 261 262 264 266 265 262 259 258 256 254 251 250 249 249 248 246 247 248 248 248 247 245 244 242 244 245 245 245 244 242 238 237 240 243 246 248 249 250 251 251 251 253 252 252 251 252 252 251 250 248 248 246 243 241 240 239 238 238 239 240 241 242 242 243 245 246 247 248 249 249 252 255 258 262 265 264 263 264 265 264 265 265 267 269 274 276 276 278 279 276 274 275 275 274 273 271 269 267 264 260 258 258 259 260 259 256 253 252 251 250 248 248 246 241 237 238 244 248 248 245 245 247 253 255 254 253 249 247 250 255 258 261 264 267 269 268 266 265 263 259 256 254 256 258 259 257 250 245 250 254 252 246 248 248 238 228 226 228 229 235 241 245 246 245 241 239 239 239 237 237 240 246 251 254 257 259 258 257 258 257 252 252 250 247 245 245 247 251 257 262 263 261 257 252 246 244 246 244 244 247 248 251 251 254 255 256 257 257 258 258 259 260 263 265 264 264
119 121 124 123 124 126 125 124 123 123 123 122 122 123 124 124 124 126 126 125 127 128 127 129 128 129 129 129 130 130 130 132 132 132 133 134 135 134 134 134 134 134 134 133 131 133 135 134 135 136 136 137 138 139 139 138 138 137 135 138 138 139 140 140 141 141 142 143 143 144 144 145 145 145 148 150 150 150 148 147 146 149 152 153 152 152 155 157 157 158 160 161 162 162 164 170 172 167 165 163 163 163 159 157 157 156 156 155 152 152 153 152 154 156 155 155 154 152 153 154 153 153 153 153 154 155 157 157 156 155 157 157 157 156 157 157 158 159 162 163 163 163 162 160 159 158 158 157 156 154 153 153 152 152 151 152 152 153 152 151 151 149 147 145 142 141 141 142 141 142 144 145 144 145 146 149 149 149 148 148 150 150 148 147 145 143 143 144 143 142 141 141 142 143 143 145 144 145 146 146 146 146 148 150 150 151 152 153 152 153 153 152 152 152 153 152 151 150 149 148 146 144 143 142 142 143 143 144 144 145 145 146 147 146 145 142 142 142 140 139 140 143 144 144 146 147 148 149 150 154 154 156 156 157 160 164 167 170 173 175 178 182 184 186 188 190 189 185 181 181 183 182 179 179 173 162 158 157 156 155 157 157 159 161 157 159 168 175 177 170 163 163 167 170 172 174 174 176 176 180 189 197 201 201 198 198 198 197 194 192 188 189 196 203 206 206 207 210 213 213 213 214 215 216 217 218 218 218 218 220 221 221 221 219 220 220 217 214 210 206 208 210 211 214 215 216 218 219 220 220 218 216 216 214 215 213 213 217 221 224 224 226 228 231 231 232 232 231 232 233 234 234 234 234 235 235 236 237 238 237 238 239 240 241 241 241 241 241 241 240 240 241 241 241 239 240 239 240 242 242 241 240 240 238 238 238 238 239 238 239 240 239 241 244 244 244 244 243 242 241 240 242 240 239 240 238 236 234 232 230 223 214 210 206 205 206 209 213 217 219 219 219 217 212 206 204 204 204 203 204 203 204 206 212 222 231 234 235 235 238 238 240 240 241 243 243 243 244 243 242 242 244 244 243 243 245 247 248 249 249 251 253 254 254 255 257 258 257 257 257 257 258 260 260 259 260 260 260 260 260 260 260 258 257 258 259 259 261 261 262 263 265 265 265 266 266 266 266 266 266 267 266 266 267 267 265 264 262 261 260 261 261 263 263 262 259 256 256 255 253 251 250 248 249 248 247 246 246 247 249 248 244 243 241 242 244 245 245 244 243 240 237 239 242 244 246 247 249 249 250 250 252 250 250 251 252 252 250 249 249 248 246 243 240 239 238 238 238 239 240 242 244 244 246 247 247 248 248 249 250 253 256 259 263 266 267 265 264 265 265 267 266 267 269 272 274 276 277 276 275 274 276 275 273 272 270 269 268 266 263 259 255 252 254 255 254 251 251 251 251 250 250 250 247 241 234 235 241 241 240 243 250 255 254 252 246 244 250 257 260 261 264 265 265 265 264 264 263 264 261 257 252 249 250 253 254 249 242 243 247 245 242 250 249 240 232 225 222 226 237 243 245 245 243 240 236 234 234 236 238 241 247 253 256 256 254 253 255 257 257 253 248 246 244 242 243 247 253 257 259 258 258 258 253 244 241 242 241 244 247 246 247 248 251 252 252 254 256 256 258 260 260 263 265 264 263
118 120 123 123 122 123 123 123 123 123 124 123 122 123 124 125 126 126 127 127 127 127 127 128 129 129 129 129 129 129 130 131 131 132 133 133 133 134 134 132 133 133 133 132 132 134 134 134 134 134 134 135 136 138 137 137 137 137 137 138 138 139 140 140 140 141 142 142 143 142 142 144 145 145 148 150 150 149 147 146 145 146 149 149 149 151 152 155 156 160 162 162 164 165 166 170 171 167 163 162 161 159 157 157 156 154 154 154 153 152 152 151 152 153 154 153 153 153 153 154 154 152 153 153 154 154 156 156 156 156 156 157 157 156 157 157 158 160 161 163 162 162 162 160 159 159 158 157 156 155 154 152 151 151 151 151 151 152 152 152 151 148 145 143 142 143 143 142 142 141 142 145 145 145 147 149 150 149 148 148 151 151 149 147 146 145 145 144 144 144 143 143 144 144 144 145 144 145 147 148 148 147 149 151 152 153 155 155 155 156 155 154 154 153 153 153 151 149 149 148 146 144 143 143 143 144 145 144 145 146 147 147 146 146 145 143 142 141 140 141 141 143 145 145 146 146 147 148 148 152 155 157 157 159 162 164 167 171 173 177 180 183 185 186 188 190 190 188 185 184 183 180 178 176 173 164 158 156 155 155 155 156 157 158 156 159 167 170 169 165 160 161 163 165 167 169 170 172 175 181 191 194 196 199 200 202 203 202 203 203 201 200 202 205 207 206 207 210 211 212 213 214 215 215 216 217 217 216 216 218 220 219 217 217 217 217 215 211 208 206 206 208 211 213 214 215 217 217 218 219 217 215 214 213 212 212 214 217 220 223 225 226 229 229 228 229 231 232 232 234 235 234 234 234 235 236 236 237 237 237 238 238 239 239 239 240 240 241 240 240 240 240 240 240 240 241 239 239 241 241 240 239 239 239 238 237 237 238 240 239 239 240 241 242 243 244 245 243 243 242 241 241 239 239 241 239 237 235 233 231 223 215 211 208 205 205 206 208 211 212 210 208 207 204 203 203 203 202 201 203 204 205 210 221 229 234 235 236 237 236 238 240 241 242 243 244 245 246 246 246 245 245 245 244 243 245 247 249 249 249 252 254 255 255 254 256 257 257 257 258 257 259 260 261 261 261 261 260 260 261 261 260 260 260 260 261 261 262 263 262 263 265 265 264 265 266 266 266 265 266 267 266 267 267 267 266 264 262 261 259 259 258 261 260 257 255 253 253 253 252 250 249 247 247 247 245 245 245 247 248 247 246 244 242 242 243 245 245 244 243 240 237 237 241 244 245 246 248 249 250 250 250 249 249 249 251 250 249 249 249 248 245 243 239 238 237 238 241 242 243 244 244 245 247 248 250 250 249 249 252 254 255 258 261 264 264 262 261 262 264 266 268 269 270 271 273 274 275 274 272 272 273 273 271 271 269 267 267 269 265 262 258 251 247 250 252 249 248 249 249 249 250 251 249 244 237 232 231 234 241 247 252 253 251 246 243 249 257 261 261 261 263 262 261 261 261 264 263 262 262 260 258 253 246 244 245 244 239 238 241 239 243 251 251 245 239 230 223 225 235 243 244 241 237 235 232 231 233 235 240 245 248 253 255 254 250 249 251 252 253 250 246 244 242 241 244 247 252 255 253 251 254 257 253 246 240 238 241 245 247 246 245 245 246 248 249 252 254 255 257 260 261 262 264 264 263
118 119 121 122 121 120 120 121 122 123 123 123 123 123 124 126 127 126 127 127 128 126 126 126 127 129 128 128 128 128 130 131 132 132 133 133 133 134 133 131 132 133 133 132 132 133 133 133 133 132 133 135 135 137 137 137 137 137 137 138 138 138 139 140 140 141 142 141 141 141 142 143 144 145 147 150 150 147 145 145 145 147 148 149 149 150 152 153 156 160 162 162 163 165 167 170 170 166 162 162 159 156 156 155 154 153 153 153 153 151 151 151 151 152 152 152 153 152 153 153 153 153 154 153 153 154 155 156 157 157 156 156 157 158 160 160 159 161 162 162 162 162 162 161 159 159 158 156 155 154 154 152 152 152 151 149 150 150 151 150 149 147 145 143 145 145 145 143 142 141 141 144 145 146 147 148 149 150 149 149 152 152 151 150 148 148 147 146 145 145 145 144 145 144 145 146 146 147 148 150 149 148 150 153 154 155 157 157 157 157 156 155 153 152 152 152 151 149 148 147 146 144 143 144 145 147 148 147 148 148 148 148 147 147 146 144 142 140 140 141 142 144 148 148 148 148 149 150 150 152 155 159 160 162 165 167 169 172 175 179 182 184 186 186 188 189 190 189 185 181 178 175 173 172 170 165 160 155 155 154 155 156 157 157 154 158 164 165 162 161 159 160 160 161 164 165 167 168 171 178 187 186 185 190 196 202 203 204 205 207 207 207 208 209 209 209 210 211 212 214 214 214 215 214 214 215 215 214 214 215 216 216 214 214 214 214 212 209 206 204 205 206 209 212 214 215 215 215 216 216 215 215 214 211 211 212 214 217 220 223 225 226 228 228 226 229 231 232 233 234 235 234 234 235 235 236 237 237 237 237 238 238 238 239 239 240 239 239 240 240 240 240 240 240 240 240 240 240 240 240 239 239 239 239 238 238 238 237 239 240 239 240 241 241 240 242 243 242 243 242 240 240 240 239 240 238 237 237 235 233 226 219 215 210 207 206 205 206 209 210 207 205 203 202 203 204 203 203 203 205 207 209 218 230 234 236 236 237 238 238 239 241 242 244 245 245 247 248 249 248 248 246 247 246 246 247 249 249 249 251 254 256 256 255 254 255 257 256 256 258 259 260 261 262 262 261 261 260 260 260 262 261 261 262 262 262 263 263 263 263 263 264 263 264 265 267 266 266 265 265 266 267 267 267 267 267 265 262 260 258 258 258 258 258 255 253 253 253 252 250 249 247 246 246 246 245 244 244 246 246 246 245 243 242 241 242 244 244 243 242 240 237 237 239 243 245 246 248 249 248 247 248 249 249 249 250 250 249 249 248 247 244 241 238 236 237 239 242 243 244 246 246 247 248 249 250 251 250 251 253 255 256 258 260 262 262 261 261 263 263 265 268 271 272 273 273 274 275 274 273 270 270 270 270 269 269 268 267 266 263 262 261 254 246 247 250 248 246 245 245 245 247 248 247 245 241 235 230 232 242 249 252 250 244 238 243 254 260 262 260 260 259 256 256 257 258 263 262 260 260 261 262 260 252 246 242 238 234 233 235 234 240 250 250 249 245 237 229 227 233 240 241 238 232 230 230 231 234 237 244 249 252 256 258 257 252 248 248 248 247 247 244 242 240 241 244 246 251 254 251 248 249 252 250 245 240 238 242 245 245 244 244 246 247 249 251 253 255 255 256 259 261 262 264 266 263
118 119 119 120 120 119 118 119 121 121 122 123 123 123 123 125 126 125 126 127 127 126 125 125 126 127 127 127 128 129 130 131 132 132 132 132 133 133 133 132 131 133 133 133 133 133 132 132 132 132 133 135 136 136 137 138 138 138 138 138 138 138 139 139 140 141 142 141 141 141 142 143 143 143 145 147 149 148 145 143 146 147 149 150 150 151 152 154 156 158 161 161 162 164 167 168 166 164 162 162 159 157 156 154 153 152 153 153 152 152 151 151 151 150 151 152 154 152 152 152 153 153 153 154 154 155 155 156 156 157 156 156 157 159 161 160 158 158 159 161 162 162 162 161 160 159 159 157 155 155 155 154 153 152 151 150 149 149 149 148 147 146 145 145 147 148 147 146 143 141 143 144 145 146 147 147 149 150 150 151 152 154 153 151 150 150 149 148 147 148 148 147 146 146 146 147 148 149 150 151 150 150 151 154 156 158 159 159 158 156 155 155 154 153 152 151 150 149 147 147 146 144 144 145 147 150 150 149 149 149 149 149 149 148 146 145 143 141 141 142 144 146 149 150 151 151 152 152 152 153 157 160 162 165 167 168 170 173 176 179 183 184 185 185 186 188 190 189 184 180 177 172 170 168 166 164 160 157 158 157 156 156 156 155 153 155 160 160 158 156 156 157 158 159 161 162 164 164 168 174 178 177 177 183 190 197 202 204 206 208 209 209 209 210 210 210 210 211 213 214 214 213 212 211 212 213 213 212 211 211 213 213 211 211 212 212 211 209 206 203 203 205 207 210 212 213 213 213 214 213 212 212 212 210 210 212 215 219 222 224 226 225 226 226 226 229 231 231 232 233 233 233 233 233 234 235 235 236 237 236 236 237 238 239 239 240 239 239 239 239 239 240 240 240 240 240 239 239 239 239 238 239 239 239 238 239 239 238 238 238 238 240 241 240 239 239 241 241 241 241 240 241 241 240 240 240 238 237 236 235 232 226 219 212 209 207 204 204 205 206 204 203 202 201 202 203 202 202 204 207 209 213 224 234 236 238 238 237 238 239 240 241 243 245 245 246 247 248 249 249 249 248 248 249 249 250 251 250 250 253 257 258 257 256 255 255 256 255 257 259 258 259 260 261 261 261 261 261 262 262 261 260 260 262 262 262 264 263 263 263 264 265 264 264 265 266 266 265 265 265 265 266 266 266 266 267 265 263 261 259 259 258 258 259 257 254 254 253 251 250 248 247 245 244 245 244 243 243 245 245 244 244 243 242 242 241 242 244 244 242 240 237 235 238 242 244 245 246 247 246 246 247 249 248 248 249 249 248 248 246 243 241 238 237 237 238 240 243 244 245 247 247 249 251 251 252 252 251 253 254 256 257 258 260 260 260 261 261 262 263 264 267 270 272 272 272 273 273 273 271 270 268 268 268 268 268 267 268 266 263 261 259 252 245 245 247 246 243 242 242 242 240 241 241 239 238 237 233 230 238 246 248 244 237 237 245 253 258 259 257 258 258 254 253 254 257 261 260 257 255 257 258 260 259 256 251 243 237 232 229 230 235 245 248 249 246 240 232 227 228 233 234 232 229 228 230 232 235 240 250 257 256 258 258 255 251 247 246 245 245 246 244 241 239 239 242 246 251 254 249 245 246 246 245 244 239 237 241 243 243 244 245 245 247 250 252 255 256 256 256 259 261 262 264 264 264
117 117 117 118 120 119 118 119 120 120 121 122 122 122 122 123 125 124 125 125 124 125 125 125 125 126 127 128 129 128 130 130 130 131 132 132 133 133 132 131 131 133 133 133 134 134 133 132 132 132 133 135 137 137 137 137 138 138 139 139 138 140 139 139 140 140 141 141 142 142 143 143 142 142 143 145 146 146 145 143 146 147 149 150 150 151 152 153 155 157 159 160 162 163 166 165 164 163 161 161 159 156 154 153 153 151 152 151 151 153 151 150 149 149 150 151 153 152 150 151 152 151 152 153 154 156 155 155 155 156 157 157 158 159 161 160 158 158 158 160 161 162 161 160 161 160 158 157 156 156 155 155 154 153 151 149 148 148 147 146 146 146 146 146 149 150 149 148 145 144 144 144 144 145 146 147 148 149 150 151 151 152 153 152 151 151 150 149 148 150 152 152 151 148 147 148 150 151 152 153 152 153 154 156 158 161 162 160 159 157 155 155 154 153 152 150 150 150 148 146 146 146 146 147 149 152 151 150 150 151 151 151 150 148 147 147 144 142 143 143 146 147 149 150 152 153 154 154 155 157 160 163 165 167 168 170 171 173 176 180 182 183 183 184 184 186 187 188 185 182 178 175 173 169 165 163 161 160 161 159 157 156 156 156 155 155 157 157 155 155 155 155 155 157 158 159 159 161 165 169 173 172 173 180 185 192 199 202 205 207 208 207 208 209 209 209 208 211 212 212 212 210 209 210 210 210 211 211 210 209 210 210 208 207 208 208 207 206 204 201 201 204 206 207 209 211 211 211 211 210 209 209 208 209 210 213 216 220 223 224 225 223 223 224 225 228 230 230 231 232 232 232 232 232 233 234 234 234 235 236 236 237 238 238 238 239 239 239 238 238 238 239 239 239 239 239 239 238 239 239 239 239 237 236 237 239 239 238 237 237 238 239 239 238 238 238 238 239 240 240 241 242 242 242 241 241 239 237 237 237 235 230 223 215 210 206 203 202 202 203 204 202 201 201 204 205 203 204 205 207 210 214 226 235 237 238 239 238 239 239 239 240 242 244 245 246 246 247 249 250 250 248 248 249 251 250 251 251 252 256 258 260 259 257 255 256 257 256 257 258 258 260 261 261 261 262 262 262 262 262 262 261 261 262 262 262 263 264 263 262 264 265 265 265 266 266 265 265 265 265 264 264 265 265 265 266 265 264 263 261 260 258 258 259 258 256 254 253 251 249 248 246 245 244 244 243 242 242 242 242 242 243 242 241 240 241 242 243 243 242 239 236 235 237 240 243 244 245 245 245 246 247 248 248 248 248 247 246 246 243 240 239 236 235 237 239 241 244 246 246 247 247 250 253 254 254 253 253 255 256 257 257 259 259 258 258 260 261 262 263 263 265 268 269 269 271 272 271 271 270 269 268 267 266 265 266 268 269 268 265 261 255 248 242 242 242 241 239 239 240 239 237 235 233 233 234 235 231 228 231 241 243 240 234 242 249 252 254 253 255 258 258 253 249 251 256 258 257 253 250 251 253 258 262 261 258 254 249 239 230 227 230 237 243 247 246 239 230 224 225 229 227 226 227 229 231 232 235 242 253 258 255 253 252 249 247 245 244 243 244 244 242 240 239 239 242 246 248 251 248 243 242 243 242 240 237 236 238 240 242 246 247 248 249 250 252 256 257 256 255 259 261 263 263 263 263
116 116 116 118 119 119 118 120 120 120 121 122 121 122 122 123 123 123 123 123 123 124 126 126 125 125 126 128 129 128 129 129 130 131 131 132 133 133 133 132 131 132 133 133 133 133 134 134 134 134 134 135 137 138 138 137 136 138 139 139 138 139 139 140 140 139 139 142 144 144 144 144 143 142 143 143 143 145 145 146 147 147 148 149 150 151 151 154 156 157 158 160 161 162 164 165 164 163 161 160 157 155 153 153 153 151 151 150 150 153 151 149 148 148 149 150 151 151 151 151 152 150 151 152 154 154 154 155 155 156 157 158 158 159 160 159 159 158 159 158 160 161 160 161 161 160 158 157 156 157 156 155 155 152 151 150 149 149 148 146 146 147 147 148 151 151 150 148 146 145 145 145 144 145 146 147 148 149 149 149 150 151 152 153 154 152 152 150 149 151 154 157 155 150 147 148 151 153 155 155 156 157 157 157 159 163 164 163 161 158 156 155 154 152 150 150 149 149 148 147 147 148 148 149 151 153 153 152 153 153 153 154 152 150 148 147 145 143 142 143 145 146 148 150 152 152 154 157 157 160 164 168 169 170 170 171 173 174 176 179 181 181 182 182 182 183 185 187 187 185 183 180 177 173 168 165 163 162 162 161 159 157 156 156 156 155 155 155 156 156 157 156 155 155 157 157 156 159 163 166 168 168 172 177 181 185 192 199 202 203 203 203 205 207 207 207 207 210 211 209 209 207 207 207 207 207 207 208 207 206 206 205 205 205 204 204 203 202 200 199 201 205 206 205 206 208 208 208 208 208 207 208 207 207 210 213 216 219 222 222 221 220 220 222 224 227 229 229 230 231 232 232 232 232 233 234 233 233 235 235 235 236 238 238 238 238 238 238 237 237 237 238 238 239 238 238 238 238 238 239 238 238 237 237 237 239 239 238 236 238 237 237 237 236 236 236 236 238 238 240 242 242 241 241 240 241 239 238 237 237 235 232 228 221 214 207 202 202 201 204 205 202 201 202 205 207 206 206 208 209 211 215 221 230 235 237 238 238 240 240 239 240 243 244 245 247 246 246 246 247 247 246 247 249 249 249 250 251 253 256 258 259 259 258 256 257 258 258 258 258 260 261 261 261 262 262 262 262 261 262 263 262 262 262 262 262 263 264 264 263 264 265 265 264 265 265 265 265 265 264 264 264 264 264 265 264 264 264 263 262 260 260 259 259 257 254 253 252 249 247 247 247 244 243 243 243 242 241 240 240 241 241 240 240 239 241 241 243 243 241 238 235 234 236 240 241 243 243 244 244 244 246 248 249 248 247 246 245 244 242 240 238 236 236 236 239 242 245 247 247 248 249 253 254 254 255 255 254 256 258 258 257 257 257 257 257 259 260 262 263 263 263 266 267 268 269 270 270 271 270 269 269 268 267 264 264 267 268 268 264 260 254 246 242 243 244 245 242 242 242 241 238 236 235 235 237 236 230 227 229 236 239 236 233 242 246 247 247 250 256 257 256 251 246 247 253 254 251 250 248 246 248 255 259 258 256 257 254 244 235 229 226 231 238 243 242 235 225 220 221 223 223 225 228 230 233 233 234 240 247 251 250 247 246 245 244 242 241 242 243 242 240 239 238 240 242 244 245 247 247 243 240 239 240 237 235 235 237 241 245 248 251 253 253 253 254 256 255 254 255 259 260 262 262 262 262
116 115 116 117 117 118 118 118 120 121 123 123 123 123 122 122 121 122 122 121 122 123 125 126 126 125 125 126 127 128 129 129 131 130 130 131 131 131 132 132 133 133 132 132 132 133 135 135 135 136 136 136 136 137 136 136 136 137 139 138 138 137 138 139 140 138 139 143 146 147 146 147 145 143 143 144 144 144 145 147 146 145 146 148 149 150 152 157 160 161 160 160 161 164 166 166 165 164 161 159 156 154 153 153 153 151 150 148 148 150 150 149 148 148 149 150 150 151 152 152 151 150 152 152 153 153 154 156 157 157 157 158 158 159 159 160 159 158 160 159 160 162 162 162 161 160 159 158 157 157 156 156 154 152 151 150 149 150 149 148 148 147 148 150 151 152 150 148 146 145 145 144 144 145 146 147 147 148 148 148 149 151 153 154 155 154 153 150 148 150 155 158 156 151 149 149 151 153 154 157 159 160 159 157 159 161 162 164 162 159 156 155 153 151 150 150 149 149 147 148 148 148 149 151 153 155 155 155 157 157 156 156 155 153 151 149 146 143 143 142 142 144 146 148 149 150 153 157 159 162 167 171 173 173 172 172 174 174 175 178 179 179 180 181 181 180 184 186 188 188 186 183 180 176 171 167 165 164 164 164 162 160 158 157 155 154 154 155 156 157 158 157 157 157 157 156 157 159 162 163 164 165 170 173 175 180 190 196 196 193 194 198 202 203 202 204 207 209 209 207 206 205 204 204 204 204 205 206 206 205 204 202 202 202 202 201 201 200 198 199 202 205 206 206 206 205 204 205 206 207 207 206 206 207 210 213 216 218 219 219 218 217 219 222 225 227 229 230 229 230 230 231 232 232 233 234 234 233 234 234 235 236 237 238 238 238 237 236 237 237 236 237 236 237 237 237 237 237 238 238 237 237 237 237 237 237 238 239 238 238 237 236 237 236 236 237 237 238 237 239 239 240 240 241 240 241 239 239 238 236 236 234 232 227 219 209 204 204 202 204 204 202 203 203 203 206 207 208 209 210 214 217 221 227 233 237 237 237 239 239 240 242 244 245 246 247 245 243 243 244 245 247 248 248 246 246 248 249 250 254 258 259 260 260 259 258 257 258 258 258 260 261 260 261 262 262 262 261 262 262 262 261 261 262 262 261 262 263 263 264 264 264 265 264 263 264 265 264 265 264 264 264 264 264 264 264 264 263 262 262 262 262 261 261 259 254 252 250 248 247 246 246 243 242 242 241 241 240 240 239 240 239 239 239 239 240 240 242 242 242 238 234 233 235 239 240 242 242 242 241 243 245 245 246 248 246 244 242 241 240 238 236 235 236 237 240 244 246 249 250 250 252 254 254 254 255 255 254 255 257 257 256 255 255 255 257 257 259 260 262 262 263 266 267 268 269 269 269 269 269 268 269 269 268 265 263 264 266 266 262 256 252 248 244 248 252 252 248 246 247 245 243 241 238 238 239 237 231 227 227 231 233 230 232 238 241 242 242 250 256 256 252 246 243 245 249 249 246 247 248 245 244 249 252 252 250 255 253 244 237 233 228 228 234 239 238 230 221 218 218 221 226 229 231 234 238 236 235 237 241 246 245 244 243 242 241 239 239 241 242 240 238 237 237 238 240 242 244 245 245 244 240 237 237 238 235 235 239 243 246 248 251 254 254 254 254 254 253 255 257 258 259 259 260 262 263
116 116 116 116 116 117 117 118 120 121 124 124 123 124 123 122 121 122 122 121 121 123 124 126 126 125 125 126 127 129 129 129 130 130 130 130 130 131 131 131 132 132 132 132 133 135 135 135 136 138 138 137 134 135 135 136 137 138 139 139 137 137 138 138 139 139 139 142 147 148 147 147 146 143 144 146 145 144 144 146 145 144 146 147 149 151 154 159 162 164 162 162 164 167 168 167 166 165 160 157 155 154 154 152 151 150 149 148 148 148 148 149 148 147 149 152 151 153 153 152 151 150 152 153 153 154 154 154 156 156 157 159 160 159 158 159 159 158 159 160 161 162 163 164 163 160 160 160 159 158 157 157 154 153 152 150 150 150 149 149 149 148 148 150 154 153 151 149 147 146 145 146 144 147 148 148 147 148 149 149 150 151 153 154 156 155 153 151 150 153 157 159 156 152 150 151 152 153 155 157 160 161 160 158 161 163 164 163 161 159 157 157 155 153 152 151 150 149 148 149 148 149 151 152 154 156 157 158 160 159 160 159 158 155 152 151 147 145 144 143 142 142 144 144 146 149 153 156 158 162 167 170 172 172 172 172 174 173 173 176 178 179 180 180 180 179 182 184 187 188 186 184 181 176 172 168 167 168 169 168 164 162 161 159 155 154 155 156 157 158 158 158 158 157 157 157 158 159 159 161 162 164 167 169 170 178 189 189 184 182 185 194 200 201 199 200 206 209 208 205 203 201 201 203 203 202 201 202 202 201 199 199 200 200 199 200 200 198 198 199 201 203 202 203 203 202 201 202 204 205 206 206 206 208 210 214 215 216 217 216 215 215 218 221 223 226 228 228 230 230 230 231 231 231 231 232 232 232 233 234 235 235 236 237 237 237 236 236 236 236 236 236 235 235 236 237 237 237 238 237 237 237 237 238 237 237 238 238 237 237 237 237 236 236 237 238 238 238 237 237 238 237 238 240 239 240 239 239 239 237 237 233 231 229 224 214 207 203 202 203 202 202 203 203 203 206 208 209 210 212 215 218 221 226 232 237 237 238 239 239 241 242 244 246 246 245 243 241 240 242 245 247 247 245 244 244 246 246 248 252 258 261 262 263 262 261 259 258 258 259 261 262 261 261 261 262 261 262 261 261 261 261 260 261 262 262 262 263 263 264 264 264 264 265 263 262 265 266 265 263 263 263 264 264 264 265 264 263 263 262 262 261 260 258 258 254 252 249 247 247 245 244 243 241 241 240 239 239 240 240 240 238 238 239 239 240 240 240 242 242 238 233 232 235 237 238 239 240 239 239 241 244 245 244 245 243 242 242 241 238 236 235 236 238 240 244 246 248 250 252 252 253 253 254 255 256 256 256 256 257 256 254 253 255 257 258 259 260 261 262 263 264 266 267 268 269 268 268 267 266 266 267 268 267 266 263 260 262 261 257 252 251 249 249 255 257 255 251 249 250 249 248 245 240 238 238 237 231 228 227 227 228 227 231 237 240 238 242 251 255 254 251 244 239 242 246 247 244 244 247 245 242 243 246 245 245 252 253 248 241 234 228 224 229 234 233 226 219 219 223 228 231 233 235 237 240 239 237 237 239 241 242 243 242 240 239 238 238 240 241 238 236 235 235 237 239 240 242 243 245 245 241 236 236 238 235 234 239 243 244 246 248 251 251 251 251 251 253 255 256 257 258 259 259 261 261
114 116 116 115 115 117 117 117 119 120 123 124 123 124 124 122 121 121 121 121 122 123 123 124 125 125 125 126 127 128 127 129 130 129 129 129 130 129 129 129 130 131 132 131 132 135 136 136 138 139 139 138 137 137 136 137 138 139 139 138 138 138 139 138 138 139 140 142 146 147 145 145 144 143 145 145 144 144 144 145 145 145 147 148 149 150 151 156 160 164 166 167 166 166 166 166 167 165 160 157 155 153 152 151 150 148 148 146 146 148 148 148 147 147 149 151 150 152 151 150 150 149 153 156 157 156 155 155 155 155 157 159 160 158 157 157 159 159 160 160 162 163 165 168 165 161 162 161 159 159 158 158 157 155 154 153 152 151 150 149 149 149 149 151 155 153 150 149 149 148 147 147 145 147 149 150 149 150 149 151 152 152 153 155 157 157 156 153 152 153 156 157 156 153 152 153 153 155 157 160 162 163 163 162 164 165 164 162 161 160 159 158 157 155 155 154 151 149 150 150 150 151 153 155 155 157 157 159 160 161 162 161 159 156 155 152 149 146 144 142 142 142 143 143 144 146 149 152 156 160 164 168 170 172 172 172 171 170 170 173 175 177 176 176 177 179 182 184 184 186 186 184 181 177 174 171 171 173 175 171 166 164 162 159 156 157 157 157 159 159 158 158 159 160 160 160 159 157 158 160 162 163 164 165 169 177 181 178 175 174 181 191 198 201 199 201 206 206 205 202 200 198 196 199 201 199 196 196 197 196 195 196 198 197 198 199 198 196 196 199 200 199 199 200 200 200 200 200 202 204 204 204 206 208 210 212 214 215 215 214 212 214 216 220 221 224 227 228 230 230 231 231 230 229 230 232 232 233 233 233 234 235 235 236 237 236 236 235 235 235 235 236 234 234 235 236 237 237 238 237 236 236 236 236 237 237 238 239 238 237 238 237 236 238 239 237 236 234 235 237 237 235 236 238 238 237 238 237 237 236 235 232 231 230 228 221 213 205 200 200 201 202 204 206 208 210 211 212 214 217 219 223 225 229 233 237 237 237 237 238 241 242 242 244 244 243 240 239 239 241 243 244 244 243 243 242 242 243 245 249 256 260 262 263 263 261 260 259 261 261 261 260 260 260 262 262 261 262 262 262 262 263 262 262 262 263 264 264 263 263 263 263 263 264 264 262 263 265 265 264 263 263 263 263 264 264 263 262 263 263 261 258 255 254 253 252 251 249 246 245 243 243 242 240 239 239 238 239 239 239 240 239 238 239 239 241 240 240 241 239 235 230 230 233 235 235 237 238 237 238 240 242 243 243 242 241 241 240 238 236 234 236 239 241 243 247 249 250 250 251 252 253 254 253 254 255 256 255 256 256 255 254 255 257 259 259 259 261 262 263 264 264 264 266 267 268 268 268 269 268 266 266 265 263 262 262 259 257 255 255 254 255 253 255 259 259 256 253 252 251 250 249 246 241 238 237 237 234 229 226 225 226 226 228 232 233 237 242 244 247 248 249 243 238 240 246 248 245 242 244 244 242 240 239 238 241 249 251 248 242 235 229 223 224 229 228 222 218 223 230 232 232 235 239 241 242 240 240 239 239 240 240 240 239 238 236 236 237 240 240 238 236 234 234 236 238 240 242 243 243 243 241 238 238 236 235 235 237 239 241 242 244 246 247 249 252 253 255 257 258 258 258 258 258 259 259
114 115 116 116 116 117 117 116 119 120 122 123 123 122 122 122 121 122 121 122 122 123 123 124 124 125 125 125 126 126 127 128 129 129 129 129 129 128 128 129 129 130 131 132 133 135 135 135 137 138 139 139 138 138 138 137 137 137 138 137 137 138 139 138 138 139 140 142 145 145 145 145 144 143 145 145 144 144 144 144 145 145 146 148 149 149 151 155 157 161 164 164 161 159 160 162 165 165 161 157 154 151 151 151 150 148 148 147 146 148 149 148 147 147 148 149 149 150 150 151 151 151 154 157 158 158 157 157 158 158 157 159 160 157 157 157 159 160 161 161 163 165 167 169 166 164 163 161 161 160 159 160 157 155 155 153 152 151 151 150 149 149 150 152 155 153 150 149 148 148 146 146 146 147 149 150 150 151 150 152 152 154 155 157 158 158 157 154 153 155 157 157 155 154 155 156 155 156 159 162 164 165 166 167 167 165 164 164 163 162 161 160 158 157 155 154 151 150 151 151 152 153 154 155 157 158 159 160 161 162 162 161 160 158 156 153 149 147 144 142 141 143 143 144 145 147 148 150 153 158 163 169 171 172 172 171 169 168 168 172 175 174 173 174 176 179 181 182 182 184 184 183 181 179 177 176 177 177 175 170 166 163 161 160 159 159 160 160 160 160 161 161 161 161 160 160 159 157 159 161 162 163 162 163 166 170 172 172 172 173 179 188 195 197 195 198 202 203 200 199 197 195 193 196 198 198 194 192 192 193 194 195 195 195 196 197 195 195 197 198 198 197 197 198 199 200 200 200 202 203 203 205 207 208 210 211 213 214 214 213 212 212 214 218 221 222 226 228 230 229 231 231 230 229 231 231 232 233 233 233 233 234 234 235 236 236 236 235 235 235 235 235 234 234 235 235 236 237 237 236 236 236 235 234 235 237 237 238 238 238 238 237 237 238 238 237 238 236 236 237 237 236 236 236 236 236 235 235 235 234 233 232 230 230 228 225 218 207 202 202 202 204 205 210 217 218 217 219 223 225 226 229 230 233 235 237 237 235 236 236 238 239 240 242 242 241 239 238 239 241 242 242 241 242 241 242 242 243 244 247 253 258 260 261 262 262 261 260 260 260 260 259 258 258 260 261 261 261 261 261 261 262 262 262 262 262 263 264 263 262 262 263 262 263 263 263 262 264 265 264 263 262 263 264 264 264 262 261 262 262 260 256 253 251 250 250 249 248 245 244 243 242 242 240 239 239 238 238 238 238 238 237 236 236 238 239 240 240 239 238 234 230 229 231 234 234 236 236 236 237 238 240 241 241 240 240 240 238 237 234 233 237 240 242 245 247 248 248 248 249 251 252 253 253 252 253 253 252 253 254 254 254 257 259 259 258 259 261 262 263 265 263 262 263 265 266 267 268 268 266 264 263 261 260 259 259 257 255 254 255 257 257 256 259 261 259 257 255 253 250 248 248 244 241 239 240 240 236 229 227 226 226 227 228 229 229 234 236 237 238 240 243 239 235 239 246 250 248 242 240 242 242 238 235 234 237 243 246 245 240 236 233 227 223 223 223 219 217 222 228 229 230 232 236 239 240 242 243 242 240 239 238 238 237 236 235 235 236 239 238 237 236 234 233 234 237 238 240 240 240 240 239 238 236 235 234 234 235 238 240 241 243 243 245 249 250 250 253 257 259 259 259 258 257 258 257
114 115 116 117 117 118 117 116 117 119 120 120 121 121 121 121 122 123 123 123 123 123 123 123 123 124 125 125 125 125 126 127 128 128 129 129 128 128 128 128 128 129 130 131 131 133 134 134 136 137 137 137 138 138 137 137 136 136 137 137 137 138 137 137 138 138 140 141 142 143 143 144 144 143 144 144 143 143 143 143 144 145 146 149 150 150 151 153 154 157 158 157 155 153 155 159 161 161 159 156 153 150 150 150 150 149 148 149 149 151 150 148 147 148 149 148 148 149 150 152 154 154 153 154 155 156 157 159 159 158 157 158 159 158 157 158 159 160 161 162 163 164 167 170 168 167 165 162 162 161 160 160 158 157 156 154 153 151 150 151 149 151 152 153 154 152 151 150 148 148 146 146 147 148 150 152 152 151 150 151 152 154 156 159 159 159 158 156 155 157 159 157 155 156 158 159 158 159 160 162 164 166 168 169 169 166 164 164 164 164 162 161 161 159 156 155 153 152 152 151 153 155 156 156 158 159 160 162 162 162 162 161 160 159 156 153 150 147 144 142 140 141 142 143 144 146 147 149 152 157 162 168 170 170 168 167 166 165 166 169 171 172 171 172 175 178 179 180 182 183 182 181 181 181 180 181 180 177 174 170 166 163 161 161 162 162 162 163 163 162 162 162 162 160 160 160 159 158 160 160 161 161 161 161 163 164 166 170 173 178 185 191 194 191 190 193 198 199 195 191 190 189 189 191 193 192 190 188 187 189 191 194 194 194 194 194 194 194 196 197 196 195 196 197 199 199 199 200 201 202 202 204 205 206 208 210 211 213 214 213 212 213 215 218 220 221 223 227 227 228 230 231 231 230 231 231 232 232 233 233 232 233 233 234 234 234 236 235 235 235 235 235 234 234 235 236 237 236 236 236 236 236 235 234 235 236 237 237 238 239 238 238 237 237 237 238 239 239 237 237 237 236 236 234 233 234 233 233 233 233 232 230 228 227 225 221 214 206 202 202 202 205 211 222 229 226 225 228 231 232 231 231 232 235 235 235 234 234 235 235 236 236 237 239 239 239 237 238 239 239 241 240 240 241 241 241 243 244 246 248 252 257 259 261 260 261 261 260 261 260 260 261 260 260 261 262 261 261 262 262 261 261 262 262 261 261 263 263 263 263 263 262 262 263 262 262 261 263 264 263 263 263 263 263 264 263 262 262 262 260 257 255 252 249 249 248 246 245 244 243 242 241 241 240 239 239 238 238 238 237 237 236 235 235 236 238 240 239 238 237 234 231 229 230 232 232 234 235 236 236 237 238 239 238 238 238 237 238 237 234 234 236 239 242 244 244 246 247 248 249 249 250 251 251 250 250 251 250 249 251 252 254 257 258 258 258 259 261 263 264 265 262 261 260 262 264 265 266 266 264 262 260 258 258 257 257 256 254 255 258 260 258 255 259 261 260 257 255 253 249 247 246 244 241 242 243 241 235 229 229 229 227 226 226 225 224 227 228 229 229 233 239 237 233 235 241 246 246 242 237 241 241 239 234 232 234 237 239 240 238 237 235 230 224 220 218 216 216 219 221 223 228 230 233 237 240 243 243 243 242 239 236 236 235 234 235 235 237 238 238 237 235 233 232 234 236 237 238 238 237 237 237 236 234 234 234 235 237 240 243 243 244 243 246 250 251 251 253 255 257 259 259 257 256 257 257
115 116 117 117 117 118 118 117 118 119 118 118 120 121 120 120 122 123 124 124 124 123 123 123 124 124 124 125 123 124 125 126 128 128 128 128 126 128 128 129 128 128 130 130 130 132 133 134 135 136 136 137 138 137 137 137 137 137 137 138 138 137 136 137 138 138 139 140 141 141 141 143 143 143 143 144 143 141 143 143 144 146 147 149 152 151 151 150 152 153 153 152 151 150 152 154 155 154 155 154 151 150 149 149 150 149 149 149 149 149 148 146 147 148 149 148 147 147 148 151 153 153 151 152 152 153 154 157 156 156 157 157 158 157 157 158 159 161 162 163 162 163 165 168 169 168 165 163 163 163 162 160 159 158 156 154 154 153 152 152 151 152 154 155 155 153 151 150 148 147 147 146 148 150 151 151 152 152 151 151 151 153 156 158 159 159 159 158 157 158 159 157 155 157 159 161 160 160 160 163 165 168 170 171 170 168 166 165 166 165 165 164 162 161 158 156 155 155 154 153 155 156 157 158 159 160 161 163 162 162 161 160 159 159 155 152 149 147 144 143 141 142 142 143 144 145 147 149 151 156 161 166 168 167 163 162 162 162 164 167 168 170 170 171 175 178 178 180 179 180 181 180 181 182 182 184 182 176 172 168 166 164 163 163 165 165 166 166 166 165 164 163 162 162 162 161 160 160 160 160 160 161 161 161 162 162 166 171 177 186 191 193 192 187 184 187 192 193 189 185 184 184 184 187 188 187 185 183 183 186 189 191 192 193 192 192 193 193 194 195 195 194 196 197 198 198 198 200 201 202 202 203 204 206 208 209 209 212 212 212 211 212 215 217 219 219 220 222 223 226 228 231 231 231 230 231 231 231 232 233 233 232 233 233 233 234 235 235 234 235 235 235 234 233 233 235 235 235 235 235 236 236 236 235 234 236 237 237 237 237 237 238 237 236 237 237 238 239 238 239 238 236 235 233 233 233 233 232 232 233 231 226 221 219 217 212 207 203 201 201 202 209 219 228 231 231 231 232 232 232 233 232 232 234 235 234 233 233 234 234 234 233 235 237 238 237 236 237 238 238 238 238 239 240 241 242 244 246 248 251 254 257 259 259 258 258 259 259 260 259 259 260 261 261 262 262 261 260 261 262 262 262 263 263 261 262 262 261 261 262 262 262 263 262 261 262 262 262 263 264 264 263 263 263 263 263 262 263 262 260 258 254 251 249 249 248 246 244 242 242 242 241 240 240 238 238 237 237 237 237 237 234 233 234 236 238 239 239 238 236 232 230 230 229 230 230 232 233 235 235 236 237 237 236 236 237 236 235 235 235 235 237 238 240 242 242 243 245 246 247 249 248 248 248 249 249 250 249 248 250 251 254 255 256 256 257 259 261 262 264 264 262 260 259 261 262 263 263 262 261 261 258 258 258 259 258 257 255 256 260 261 261 259 260 262 261 258 256 254 251 248 247 247 245 245 245 242 235 231 232 232 230 227 227 227 227 225 224 224 224 226 232 235 231 231 237 240 242 240 237 239 241 241 237 231 228 232 236 236 236 236 235 232 228 223 219 216 215 216 216 221 227 230 235 238 241 242 241 243 243 240 236 234 233 233 234 236 237 238 237 235 232 233 234 235 237 237 238 237 235 235 235 234 233 234 235 236 237 240 242 243 245 246 248 251 252 253 253 254 256 257 257 257 257 257 257
115 116 116 116 117 118 118 118 118 118 117 117 118 120 119 119 121 122 123 123 123 123 124 125 126 124 125 124 123 124 123 124 127 128 127 128 127 127 127 128 128 128 130 131 131 132 133 134 135 136 137 137 137 136 137 137 137 137 137 139 138 136 136 138 138 138 139 140 140 139 139 141 142 142 143 143 142 142 143 142 143 149 151 151 152 152 151 149 149 151 150 150 149 148 150 149 148 148 151 152 150 149 150 148 149 149 149 148 147 147 147 146 147 148 149 149 148 147 148 149 149 150 150 150 152 153 153 154 154 154 155 156 157 157 158 159 160 162 164 164 164 165 166 167 167 168 166 165 165 165 164 162 160 159 157 155 155 155 154 152 152 152 154 156 156 154 151 149 148 147 146 147 149 150 151 150 151 151 151 151 152 154 155 157 158 160 160 160 158 159 159 158 156 157 160 162 162 161 161 163 166 168 170 171 170 169 168 167 167 168 167 167 165 162 159 159 157 158 157 156 156 158 159 160 161 161 163 165 164 162 161 160 158 156 154 150 149 147 146 144 143 143 143 143 144 145 146 148 151 154 159 164 166 165 161 159 160 160 163 165 166 167 168 170 174 176 177 178 177 178 178 179 180 182 183 184 183 178 175 170 166 165 164 164 166 170 173 172 170 169 167 165 164 163 162 161 160 159 159 159 160 162 162 161 162 162 165 170 178 187 188 189 186 180 178 179 182 183 183 180 179 179 180 183 183 182 180 179 181 183 185 186 188 191 192 191 191 193 194 194 193 194 196 197 197 198 198 200 201 202 203 203 203 205 208 208 208 211 212 211 208 209 212 215 215 216 217 217 220 222 224 226 228 228 229 230 230 231 231 232 232 232 232 232 233 233 234 234 233 234 235 234 234 234 233 233 233 233 234 235 235 235 235 235 235 236 238 237 236 236 238 240 238 238 238 238 239 240 240 239 238 237 236 234 234 233 233 232 231 231 228 222 214 209 207 205 202 201 200 201 205 215 225 229 230 231 233 233 231 230 231 232 233 234 234 233 233 232 232 232 232 232 234 236 237 236 234 234 235 236 237 238 238 238 240 242 244 246 248 251 253 256 258 258 257 256 257 258 259 259 259 259 259 260 261 262 261 260 259 260 261 262 263 263 261 262 263 262 261 261 261 262 262 263 262 261 262 262 262 263 264 262 263 263 263 262 262 262 261 259 257 253 250 249 248 247 245 243 241 240 241 240 239 239 239 239 238 237 236 235 234 233 232 233 236 237 237 237 236 234 230 230 231 229 228 229 230 230 233 235 235 235 235 234 235 235 233 233 234 235 237 238 239 240 240 240 240 244 245 245 247 246 245 245 246 247 247 247 248 248 250 254 253 254 254 255 258 261 262 263 264 262 259 259 260 261 262 262 261 260 261 259 259 260 261 260 259 257 258 260 262 265 263 262 262 261 258 255 253 252 251 251 251 249 247 243 240 238 238 236 237 238 237 239 239 236 230 228 226 225 223 225 227 225 227 233 235 237 239 238 237 238 239 238 234 230 228 232 234 234 233 231 231 232 229 228 224 218 215 215 217 222 226 233 237 238 237 238 241 242 239 236 233 232 231 233 237 239 239 238 234 233 237 238 238 237 236 236 235 234 234 232 232 232 234 236 236 238 239 241 244 247 251 252 254 253 251 251 253 254 256 256 255 256 256 256
115 116 116 115 115 117 118 118 118 117 117 116 117 119 119 119 119 121 122 122 123 125 125 126 125 124 125 124 123 123 124 125 125 127 127 127 126 125 126 128 128 129 130 132 132 131 133 135 135 135 137 137 137 137 137 137 136 137 136 137 136 135 136 137 138 139 140 140 138 139 140 141 141 142 142 142 140 142 143 141 142 148 152 152 152 152 151 149 148 148 148 149 149 149 147 146 145 146 149 150 149 148 148 147 148 149 148 147 148 149 148 147 147 148 148 150 149 148 149 149 148 149 150 151 152 153 153 153 154 154 155 155 156 157 158 160 163 163 164 164 165 166 168 167 166 167 167 167 168 168 166 163 161 159 157 156 156 156 155 154 153 153 153 153 153 151 150 149 148 147 147 147 148 149 150 150 151 151 151 151 152 154 155 156 158 160 161 161 160 160 160 159 158 158 160 162 163 163 162 163 165 168 170 171 172 172 171 169 170 170 169 168 165 164 161 160 159 159 160 159 159 160 161 163 164 164 165 167 166 164 162 160 158 155 153 151 150 148 146 145 143 143 143 144 144 145 146 148 152 154 157 161 164 163 159 158 159 161 164 166 167 168 169 171 174 175 176 177 176 175 177 178 179 181 182 183 184 182 179 175 169 166 166 167 169 174 176 175 173 171 169 167 165 164 163 161 160 160 160 159 162 163 162 162 161 161 164 169 175 182 182 181 178 175 174 174 175 176 176 175 175 176 177 179 179 178 177 179 182 182 183 185 189 193 193 192 192 194 196 194 194 195 196 197 198 198 199 199 200 202 203 204 204 205 207 207 207 208 209 208 206 208 211 213 214 215 216 215 217 219 221 223 223 225 228 229 230 230 231 231 230 231 232 232 232 232 233 234 233 233 234 234 234 234 233 232 232 232 233 236 235 235 235 235 235 236 237 237 237 237 240 244 242 240 239 239 239 241 240 238 238 239 237 235 234 233 233 231 231 230 228 221 211 206 205 203 202 201 199 202 206 218 227 230 230 230 231 231 230 229 229 228 231 232 232 232 232 232 231 231 232 234 234 234 235 235 234 234 235 235 235 236 236 237 239 241 244 246 248 250 250 254 255 256 256 257 258 258 260 259 258 259 259 258 260 261 261 260 259 259 260 261 262 262 261 261 263 263 261 261 261 261 262 263 262 260 260 260 261 262 263 262 262 263 262 262 261 261 262 259 255 252 249 247 246 245 244 242 240 239 239 238 238 237 239 239 238 236 235 234 233 232 232 233 234 236 236 234 233 231 228 229 230 229 229 230 231 230 231 233 234 233 234 234 234 233 231 234 236 237 238 238 240 241 241 240 240 243 243 242 243 244 242 243 245 246 247 247 247 248 251 252 251 253 255 255 258 260 261 262 262 261 257 257 259 260 261 261 260 261 261 260 261 263 263 261 260 260 262 263 265 267 265 265 262 259 256 254 254 254 254 253 252 249 245 240 237 242 243 239 240 243 245 244 241 238 235 235 232 228 225 224 221 220 222 224 228 233 237 238 236 235 235 236 236 233 227 226 229 230 225 223 226 231 232 232 232 225 220 218 218 218 221 228 234 234 234 234 238 240 238 235 233 231 231 234 239 241 240 238 233 233 237 240 239 236 234 234 233 232 231 232 232 234 235 235 236 238 239 241 245 249 254 254 253 252 250 249 251 254 257 256 255 255 255 256
114 115 115 115 116 116 117 118 118 118 118 117 117 118 119 119 119 120 121 122 123 124 125 124 123 123 124 124 124 123 123 123 124 125 125 125 125 125 126 128 128 129 131 131 132 132 132 134 135 136 137 137 137 137 137 137 136 135 134 134 135 135 136 136 137 140 140 139 139 140 140 140 141 141 141 142 140 141 141 140 140 144 148 149 151 151 149 149 146 146 147 148 148 148 146 146 145 145 148 149 146 146 147 148 149 149 148 147 147 148 148 148 148 148 147 148 147 149 150 149 149 149 150 152 153 154 154 153 154 155 155 155 155 156 157 159 160 160 160 163 165 164 166 165 166 167 167 168 170 169 167 165 162 160 158 158 157 156 156 154 154 153 152 151 151 150 149 149 148 146 148 149 149 149 150 151 150 151 151 151 152 153 155 157 158 158 161 162 163 162 163 161 160 160 162 164 164 164 165 165 166 168 170 173 175 176 175 172 172 172 169 167 166 166 163 163 162 162 161 160 161 164 165 164 166 167 168 169 169 167 164 161 159 156 153 153 152 150 147 146 144 144 145 146 145 145 146 149 151 152 155 157 157 157 155 156 159 162 166 170 171 171 170 173 175 174 175 176 175 174 176 180 179 181 182 183 183 182 181 177 171 168 170 170 173 177 176 174 172 170 168 167 166 165 163 161 162 165 164 162 163 163 163 164 163 162 165 167 170 174 175 173 171 170 171 172 174 174 173 172 172 174 174 174 175 177 180 183 184 185 184 186 190 193 194 193 194 195 197 198 198 198 198 198 199 199 200 200 200 200 202 203 205 205 206 206 206 206 206 205 205 207 209 212 212 213 214 216 217 219 221 221 223 227 231 231 232 231 230 229 229 230 230 231 232 232 233 234 234 233 233 234 233 233 234 231 231 231 233 234 235 235 235 234 234 235 236 237 239 239 243 245 243 242 240 240 240 240 239 238 240 240 239 236 234 233 232 231 230 229 225 217 210 206 204 204 203 201 202 210 218 225 229 229 230 229 230 231 229 227 226 227 229 229 230 231 232 231 230 231 232 233 234 234 235 235 235 234 235 235 235 235 237 239 241 241 243 244 246 249 250 252 254 255 255 256 258 258 258 259 260 260 260 259 260 260 261 259 259 260 260 260 261 262 261 260 262 261 260 261 262 262 262 262 261 261 261 260 261 261 262 264 264 263 261 261 261 261 261 256 253 251 249 247 245 244 243 240 239 240 239 238 239 236 238 239 239 238 236 235 233 231 231 232 234 235 234 233 231 228 227 228 230 231 233 232 231 230 230 231 233 233 233 233 233 233 235 238 239 240 239 238 238 241 242 241 242 244 245 244 243 245 244 245 246 248 249 250 249 250 250 250 250 251 254 255 256 258 259 260 260 258 256 255 257 259 259 259 259 260 262 261 262 264 264 263 262 265 267 268 267 266 265 265 260 257 254 254 254 255 255 254 253 250 244 241 241 244 246 244 245 246 246 244 238 234 235 238 237 233 230 228 224 222 222 222 224 231 237 236 234 230 230 231 231 232 231 226 223 222 218 216 219 225 230 231 233 233 231 225 218 217 220 225 231 231 231 232 235 237 235 233 231 230 229 233 238 240 238 238 235 231 235 240 240 235 232 231 231 232 232 234 235 234 234 234 236 238 240 241 245 250 256 255 251 249 249 248 249 253 255 255 255 255 255 255
115 115 114 116 116 117 116 116 118 118 118 118 118 119 119 118 117 119 120 122 123 123 123 122 122 122 122 123 124 123 122 122 124 125 123 124 124 125 127 128 128 129 130 132 132 132 131 132 134 137 138 138 138 138 137 136 136 135 134 134 134 135 135 135 136 138 138 138 140 140 141 140 140 141 141 141 140 141 141 140 140 140 142 144 145 146 147 147 147 147 147 147 147 146 146 146 145 146 146 146 144 145 146 149 151 150 148 148 148 148 149 149 148 148 148 148 148 150 149 150 152 152 151 153 153 153 154 153 153 154 156 155 156 156 157 157 157 158 159 161 163 164 164 164 165 166 168 171 171 170 167 165 165 163 160 159 158 157 156 156 155 153 152 150 149 149 148 148 147 146 148 149 150 150 152 152 151 151 152 153 153 154 156 158 158 159 161 164 165 164 164 163 162 162 164 166 166 167 166 166 169 170 173 175 177 178 179 177 175 174 171 169 167 167 164 164 165 165 164 162 164 165 166 166 168 170 171 170 169 166 164 163 160 157 155 153 152 149 147 146 145 145 146 146 145 144 145 147 148 149 151 152 152 153 153 155 159 164 167 171 171 170 170 173 174 175 174 174 173 173 176 179 179 181 182 183 182 180 178 176 172 172 176 175 177 178 177 175 171 171 169 168 168 166 164 163 165 166 166 166 164 165 165 165 164 163 164 165 166 168 168 168 168 168 169 170 170 170 170 173 173 174 175 175 176 178 182 185 187 188 188 188 191 194 195 194 195 196 197 199 198 197 198 199 200 201 201 200 198 199 201 202 205 206 205 205 206 205 204 203 206 208 210 213 214 216 217 219 219 220 222 224 226 228 231 231 231 230 229 228 228 229 230 230 231 232 233 234 234 235 234 233 233 233 233 233 232 232 232 232 233 234 235 233 233 234 237 237 238 239 241 243 243 243 242 241 240 238 238 239 240 238 238 237 235 234 232 232 230 226 219 212 209 206 203 200 201 201 207 219 225 227 229 229 230 230 229 229 228 228 228 227 226 227 229 231 231 231 230 232 232 232 234 235 234 234 234 234 235 236 236 237 240 240 240 242 244 245 245 247 249 251 253 254 254 254 256 258 258 259 259 260 261 259 260 261 260 260 260 260 260 260 261 262 261 259 259 260 260 262 262 262 262 262 261 261 261 262 262 262 262 262 261 260 259 259 260 260 259 254 252 251 250 248 247 245 242 240 240 239 238 237 237 236 237 238 238 238 236 233 232 229 229 230 232 231 231 230 228 226 227 229 230 231 233 231 230 231 231 229 231 232 232 234 236 236 238 240 242 241 241 239 238 241 242 242 243 245 246 245 244 244 244 246 248 249 250 251 252 252 251 252 252 253 255 254 256 257 259 259 258 257 256 256 257 258 259 259 258 259 262 262 263 263 264 264 265 267 269 269 268 265 263 261 256 253 250 250 251 253 253 253 253 250 247 245 245 247 248 248 248 247 246 243 237 234 237 242 240 238 237 237 235 232 228 226 223 226 233 232 228 223 221 221 221 221 224 224 220 217 218 219 217 219 223 225 229 234 233 226 217 217 219 221 224 229 231 233 233 234 233 230 229 229 228 232 237 238 236 236 234 230 233 237 237 234 231 232 232 232 233 235 235 235 235 235 237 238 239 241 244 249 254 253 249 247 246 245 246 250 252 253 253 254 255 255
114 115 116 116 116 116 116 116 117 118 119 119 119 119 119 119 119 118 118 121 122 123 122 122 122 121 122 123 123 123 123 123 124 123 123 124 123 125 126 127 128 129 130 131 133 132 132 132 134 136 138 139 139 139 136 136 135 134 134 135 134 134 134 135 135 137 138 138 139 139 140 140 141 141 140 140 141 140 139 139 139 139 141 143 142 142 144 147 147 147 145 146 146 146 146 145 146 146 145 145 145 145 147 147 148 147 147 147 147 148 149 150 150 149 148 149 148 148 148 151 154 154 154 154 153 154 154 154 153 154 154 155 156 157 157 157 158 159 159 161 162 163 163 164 165 165 169 173 173 172 168 165 165 165 162 160 159 159 158 157 156 154 153 152 149 148 148 149 148 148 149 149 151 151 152 153 152 151 152 154 153 154 155 156 158 158 161 164 166 166 165 165 166 165 167 169 169 169 168 168 171 172 174 176 177 179 180 179 177 176 174 172 169 168 166 165 166 165 165 165 166 166 166 167 168 170 171 169 165 164 162 161 159 155 152 152 150 149 148 147 145 146 146 146 145 144 145 145 145 147 148 148 149 150 152 154 158 162 166 169 170 170 170 173 175 174 173 172 171 173 175 177 178 179 180 182 182 180 177 176 175 176 179 179 181 180 178 176 174 174 172 171 169 167 164 164 166 169 169 168 165 165 166 165 164 164 162 163 164 165 165 165 166 166 167 169 169 169 170 174 175 176 177 178 179 180 182 185 187 189 191 192 193 196 196 195 196 196 197 197 197 197 198 199 199 200 200 200 198 199 201 202 204 205 204 205 206 205 204 205 208 211 213 216 217 219 220 221 222 222 224 226 227 228 230 230 230 229 229 228 229 229 229 229 230 231 233 234 234 234 233 233 233 232 232 232 232 232 232 232 234 234 235 233 234 234 236 237 238 240 242 242 242 243 242 241 240 239 238 239 239 237 236 237 235 233 234 232 229 223 215 211 210 207 203 200 200 203 213 223 226 228 228 229 229 229 228 229 227 228 229 228 227 227 229 230 231 231 231 232 232 232 232 232 232 232 233 235 236 236 235 236 238 239 240 243 245 246 247 248 249 251 252 252 252 254 256 257 258 259 259 259 260 259 259 260 260 260 261 261 260 261 261 261 261 259 259 259 261 261 260 260 261 262 260 260 261 261 262 261 260 259 259 258 257 258 258 258 259 257 255 252 250 249 247 244 242 241 241 239 238 237 235 235 235 236 237 236 236 233 231 230 229 229 230 230 230 228 226 227 228 230 231 232 233 231 232 233 233 230 231 232 233 236 237 238 239 242 244 244 244 242 240 242 244 245 245 247 247 247 246 244 243 245 249 252 253 253 254 253 253 253 254 255 256 256 257 258 259 260 258 254 253 254 257 258 260 258 256 256 259 261 261 261 262 263 267 269 268 267 264 260 256 253 251 250 247 245 247 248 248 250 251 249 247 246 246 249 250 249 249 248 245 242 237 236 241 245 243 241 239 239 237 234 231 229 225 223 226 224 223 221 222 226 224 220 218 218 218 220 225 227 225 220 218 218 223 230 232 225 217 215 217 220 222 230 233 234 232 232 232 229 225 224 227 231 236 237 236 235 232 228 230 233 233 232 232 234 234 234 233 235 236 237 236 237 238 238 240 242 244 248 250 250 248 246 246 245 246 247 249 250 251 253 254 254
115 116 116 116 116 117 117 118 118 118 118 117 119 119 119 119 119 120 119 120 120 121 120 120 119 120 122 122 122 122 123 123 123 123 123 123 124 125 126 126 126 129 130 131 133 133 133 133 134 135 137 137 139 140 137 136 134 133 134 134 134 134 134 135 135 136 138 138 139 139 140 140 140 140 139 141 142 140 140 140 139 139 141 142 142 142 142 144 145 145 145 145 145 144 145 144 144 145 145 146 146 146 147 146 146 146 146 146 146 148 149 151 150 149 149 149 149 148 148 151 154 156 155 154 154 155 154 153 152 153 153 154 155 157 157 157 158 159 160 160 161 162 162 164 166 167 169 172 173 173 170 167 166 164 163 161 160 160 158 158 157 155 154 153 151 149 149 149 149 149 149 150 151 151 153 154 153 153 153 154 154 154 155 155 158 159 161 164 167 168 167 167 170 171 170 172 172 171 171 172 173 174 176 178 178 180 181 181 178 177 177 175 171 169 167 167 167 166 165 166 166 167 167 168 169 170 171 167 163 161 160 158 157 155 152 152 151 151 150 149 148 147 147 147 146 146 146 146 146 147 147 147 148 149 150 152 156 160 165 167 167 168 171 173 173 172 172 170 170 172 175 175 176 177 179 180 181 180 178 177 178 179 181 182 183 182 180 177 176 176 176 174 171 167 165 166 169 174 174 170 167 167 167 166 165 165 162 162 164 164 164 166 166 167 168 170 171 172 174 175 176 179 181 183 183 183 185 186 187 191 193 194 194 196 196 196 196 196 196 197 198 197 197 198 199 199 199 198 197 198 201 203 203 205 205 205 205 205 204 206 209 212 215 217 219 220 221 222 223 224 226 227 228 229 230 231 230 228 229 228 229 229 230 229 229 231 233 233 233 232 232 232 233 233 232 231 230 231 232 232 233 234 234 233 235 235 236 236 237 240 240 241 241 241 243 242 240 239 238 238 237 237 236 236 234 233 233 232 227 220 216 213 210 207 202 199 200 205 219 225 225 226 226 224 226 226 226 227 227 227 227 227 228 227 228 229 230 231 231 231 231 232 231 231 233 233 234 236 237 237 236 236 237 238 240 243 246 247 248 248 249 251 253 254 254 255 257 257 258 259 258 258 259 259 258 259 260 260 261 260 261 261 261 260 260 258 258 259 261 261 259 260 261 261 260 259 259 260 260 260 258 257 256 255 256 256 256 257 258 258 256 254 253 251 247 244 244 241 240 239 238 236 234 233 234 235 236 234 233 232 230 229 229 228 229 230 229 227 227 229 231 233 233 233 232 232 232 234 235 233 232 232 235 237 238 239 241 242 244 246 246 246 244 242 243 245 249 251 250 249 247 245 244 245 249 252 254 254 255 255 254 254 255 256 257 258 259 260 261 260 257 254 252 254 258 259 259 257 254 254 257 259 259 260 261 263 266 268 267 263 258 253 250 248 246 245 243 242 244 243 243 245 247 246 245 244 245 247 248 249 250 249 245 242 240 241 245 245 243 243 241 239 236 234 234 231 227 223 221 221 225 228 233 235 232 224 220 222 224 229 232 234 232 227 221 217 218 224 229 224 216 214 217 220 226 232 234 235 234 232 231 229 223 220 227 232 235 236 235 234 229 226 226 227 228 230 232 234 236 236 235 234 235 237 237 237 238 239 241 242 245 247 247 247 247 246 246 246 246 245 246 248 251 253 253 254
116 116 116 117 117 117 118 119 119 118 117 117 120 122 121 120 120 120 119 119 119 119 119 119 119 120 122 122 122 122 122 123 124 124 124 125 126 126 127 126 126 129 131 132 133 135 135 135 135 135 136 137 138 140 138 136 134 134 134 134 134 134 134 135 134 135 138 138 138 140 139 138 139 139 140 141 141 140 140 140 139 140 140 141 141 141 141 143 144 144 144 144 144 143 144 143 143 144 145 145 145 145 146 145 146 145 144 145 146 148 150 151 151 149 149 148 149 149 149 149 152 155 155 154 153 155 155 153 154 154 154 154 156 157 157 158 159 159 160 161 162 163 163 165 167 168 170 171 173 173 170 168 166 164 163 162 162 161 160 160 159 156 154 154 152 151 151 151 151 151 150 151 152 152 153 155 155 155 155 154 154 154 155 156 158 159 161 165 167 168 170 171 174 175 174 175 175 175 176 176 177 178 179 180 180 181 181 179 177 177 177 175 173 170 169 168 167 167 166 166 167 168 168 170 170 171 170 166 164 163 161 158 157 156 155 155 155 154 153 152 150 148 148 148 148 146 145 146 148 148 147 147 149 149 149 151 155 158 163 166 165 164 169 170 171 171 170 169 170 173 175 174 176 177 178 179 180 180 179 178 178 180 182 182 183 183 181 179 177 177 178 175 171 169 167 168 171 179 179 173 169 168 168 167 166 167 165 163 163 164 166 167 167 168 170 174 175 175 177 177 178 181 183 185 186 187 189 189 190 192 194 193 192 195 196 196 196 196 194 194 196 197 197 198 198 198 197 197 197 199 201 202 202 204 205 204 204 203 203 206 211 214 216 218 219 220 220 221 223 225 226 227 227 229 229 230 230 229 229 229 229 230 231 230 229 231 232 232 232 232 232 232 233 233 233 232 231 231 232 232 232 232 232 232 234 234 234 235 236 239 239 240 239 240 242 241 240 238 237 237 236 235 235 234 233 233 232 231 225 218 215 213 209 206 202 200 201 207 219 221 221 223 223 219 220 220 222 224 224 223 226 228 227 227 228 228 229 231 230 231 231 231 231 233 234 235 236 237 238 238 237 237 239 239 241 243 246 248 247 247 250 252 253 254 255 256 256 256 257 259 259 258 257 258 259 259 259 259 260 259 259 261 261 261 261 259 259 259 261 261 259 260 260 260 260 260 258 259 258 258 257 257 255 255 255 255 256 256 257 257 257 257 256 253 249 244 243 243 241 239 238 236 235 234 232 234 233 232 232 231 228 227 228 227 227 227 227 227 228 231 234 234 234 235 235 235 235 236 237 236 234 235 236 237 238 239 241 243 245 247 248 248 247 244 242 245 248 249 250 252 249 248 246 245 247 249 251 253 255 256 256 256 257 258 259 259 260 263 263 260 257 253 251 253 257 258 258 256 254 255 257 259 259 260 262 263 265 267 266 261 255 252 249 246 244 243 241 241 242 242 241 243 244 243 242 243 244 245 245 248 250 249 248 248 246 246 247 246 245 244 243 241 239 237 238 236 233 227 222 225 232 236 239 238 235 229 227 229 231 234 235 235 233 230 225 217 215 217 221 220 215 215 221 225 229 232 234 234 234 233 231 230 224 219 226 230 234 236 235 233 227 225 225 225 228 232 234 235 237 238 237 235 235 238 238 238 239 240 242 244 246 247 247 246 246 245 245 245 245 246 247 248 249 250 251 252
115 115 115 116 116 117 119 119 118 117 116 117 120 123 125 124 123 121 120 119 120 119 120 119 120 121 121 121 121 121 122 122 123 123 125 125 126 126 126 127 128 129 131 132 134 135 135 135 135 136 136 137 138 139 138 136 134 133 133 133 134 134 134 135 134 135 137 137 137 138 137 137 137 138 140 141 140 140 139 140 140 141 139 139 139 140 140 142 142 142 143 143 142 143 145 143 142 143 145 145 144 145 144 144 144 143 144 145 147 148 150 151 151 151 152 150 150 150 150 149 151 154 154 154 155 156 155 154 154 155 155 154 156 158 158 159 161 161 161 161 162 163 163 165 167 169 171 172 173 173 171 169 168 168 167 166 165 164 164 163 161 156 154 153 153 152 152 152 152 152 152 151 152 153 154 156 156 156 156 154 153 154 155 156 158 159 162 165 167 168 170 172 176 177 177 178 178 179 180 179 180 181 181 181 181 180 180 177 176 177 176 175 173 171 169 168 168 168 166 167 168 168 169 171 171 171 170 167 167 167 164 161 159 159 159 157 157 157 155 154 151 149 148 148 148 146 146 147 148 147 147 147 149 149 150 151 154 156 159 163 164 163 166 167 168 168 168 168 171 174 175 175 175 176 176 177 179 180 179 178 179 179 181 183 183 183 182 180 178 178 178 175 173 173 171 171 175 181 181 177 172 170 169 168 167 168 167 164 163 164 166 168 168 171 175 177 178 178 179 179 181 183 185 188 190 191 192 192 193 195 195 191 188 193 194 195 195 194 192 190 191 195 196 197 197 197 196 196 197 200 201 202 203 203 204 204 202 201 204 207 210 215 217 219 219 219 219 222 224 226 226 227 227 228 227 229 229 229 229 230 230 229 230 229 230 231 231 231 231 232 232 232 233 233 232 232 232 231 231 232 232 232 231 232 233 233 233 234 235 237 238 238 238 239 240 239 240 238 237 237 235 234 234 234 233 232 231 229 224 219 213 210 206 203 200 200 202 206 213 215 214 217 217 213 212 212 214 217 219 220 224 226 226 226 227 228 230 230 229 230 230 231 232 233 235 236 238 238 239 240 239 239 240 242 243 245 247 249 249 248 251 253 255 255 255 256 256 257 258 259 259 258 258 258 259 259 259 259 259 258 258 260 260 260 260 260 259 258 259 259 259 259 259 259 260 259 258 258 257 256 256 257 256 255 255 255 255 255 256 257 257 259 258 253 250 244 242 242 241 239 239 238 236 235 232 231 231 231 230 229 226 227 228 227 227 225 225 228 231 233 234 235 235 235 237 238 238 239 240 239 239 239 238 237 238 240 242 244 245 247 248 249 250 247 245 245 246 247 249 251 251 250 247 246 247 246 248 250 252 254 255 256 258 260 262 261 262 264 263 260 256 253 250 251 253 255 255 254 255 259 261 261 262 261 262 264 266 268 264 259 254 251 248 245 244 241 240 240 240 240 239 241 243 242 241 241 242 244 244 246 249 249 249 251 250 250 250 249 248 246 244 242 241 240 240 238 237 234 225 224 231 236 240 238 235 234 234 234 235 236 237 237 233 230 225 222 218 215 216 216 214 219 227 230 228 229 233 234 234 232 231 230 225 219 222 227 231 232 230 228 225 227 226 225 230 234 236 237 238 239 238 237 236 237 239 239 240 241 243 244 246 246 246 245 245 244 245 245 245 247 247 247 248 249 250 253
114 114 116 117 116 117 118 117 117 115 117 118 120 124 127 126 124 121 119 119 121 122 121 120 121 121 120 122 122 122 121 120 121 122 123 123 125 125 125 128 130 131 131 131 132 133 133 133 135 136 137 138 139 138 138 136 134 132 133 133 134 133 134 135 135 135 135 135 136 137 137 137 137 139 139 140 139 138 138 140 142 141 138 139 139 139 140 142 141 142 143 143 143 144 145 144 144 143 144 144 143 144 143 143 144 144 145 146 147 148 149 151 153 154 154 152 151 151 151 150 152 154 155 155 155 156 155 153 154 155 154 155 157 159 160 159 160 162 162 161 161 162 163 165 167 169 171 173 172 173 173 171 170 170 171 172 170 169 167 165 162 157 154 153 153 152 152 153 152 152 152 153 153 154 156 157 157 157 157 155 154 155 155 155 157 160 163 165 167 169 171 172 176 177 179 181 181 182 182 181 182 182 182 181 180 179 178 177 176 176 175 173 171 170 170 168 168 168 167 168 169 169 171 173 173 172 172 171 173 170 166 163 162 162 161 159 159 157 155 153 151 149 147 147 148 147 148 149 149 148 146 148 149 149 150 151 152 153 155 157 158 160 162 164 166 167 166 168 169 172 176 175 174 174 175 175 177 178 178 178 179 180 182 185 185 185 183 182 180 180 180 179 178 177 176 175 179 182 184 180 174 172 171 171 171 172 169 166 163 163 165 167 169 173 176 177 178 178 179 181 183 186 187 190 192 193 195 196 196 195 193 190 186 187 189 192 191 189 186 185 187 190 191 193 193 194 194 195 197 200 200 202 204 205 203 203 201 201 204 207 210 216 217 220 220 220 220 222 224 225 226 227 228 227 228 229 229 229 229 230 229 229 230 230 230 231 230 229 230 231 231 232 232 232 231 231 231 231 231 231 230 231 232 232 232 232 233 234 234 237 238 236 237 238 239 238 239 238 238 236 235 233 232 233 233 231 229 225 221 220 212 206 204 202 200 199 201 203 206 208 208 210 209 207 207 206 207 211 215 218 223 226 227 227 227 227 228 229 229 229 230 230 232 234 236 237 239 240 239 240 240 240 240 242 245 246 247 249 250 250 250 253 255 255 256 256 257 259 259 259 259 260 259 258 258 258 259 259 258 257 257 259 259 259 259 259 259 259 259 258 259 259 258 257 258 258 258 257 256 255 254 255 254 253 254 255 254 255 257 258 258 258 256 252 250 245 243 242 240 240 240 240 237 236 234 233 232 230 228 226 226 227 227 227 226 224 224 229 232 233 235 236 235 236 238 239 240 241 242 241 242 241 239 238 238 240 241 242 244 246 249 252 251 248 245 244 244 246 248 249 251 252 249 248 248 247 247 249 250 251 253 256 257 261 264 264 264 263 262 259 256 252 250 249 250 251 252 254 259 264 265 263 261 261 263 265 268 268 262 257 254 250 247 247 244 241 240 239 239 239 240 240 241 240 240 239 240 241 242 244 247 248 250 252 253 253 252 250 249 247 245 242 242 243 239 236 236 232 224 223 227 234 240 239 237 238 240 239 238 239 239 239 235 231 229 229 223 218 217 215 214 218 223 225 224 227 231 234 233 231 230 229 226 219 219 222 225 225 223 222 226 232 234 232 233 235 237 237 238 237 237 238 238 239 241 242 242 243 244 245 245 244 244 244 243 242 244 244 244 246 246 247 249 250 252 255
113 114 116 116 116 117 118 117 115 115 117 117 119 123 125 124 122 119 119 119 120 122 121 119 120 122 122 122 122 122 121 121 121 122 123 123 125 125 125 127 130 131 132 132 132 131 131 131 132 133 136 138 139 138 137 135 133 132 133 133 134 133 133 134 135 134 134 134 136 137 137 136 137 137 137 138 138 137 138 140 139 139 139 140 139 140 141 142 143 143 143 143 144 144 144 145 144 144 146 147 144 144 144 144 145 147 148 151 151 152 152 153 155 156 156 154 152 152 151 152 155 158 158 158 157 157 156 155 155 156 156 157 158 159 161 162 161 160 161 163 164 165 166 167 168 170 172 173 172 173 174 172 171 169 169 169 167 166 166 165 163 161 157 154 154 153 153 153 152 152 151 154 155 157 158 160 159 159 158 158 156 156 157 157 158 160 164 166 169 171 172 174 176 179 180 182 183 183 185 185 183 183 181 180 178 178 178 175 173 174 173 171 171 170 170 169 168 168 169 170 170 171 171 173 173 172 173 174 174 170 166 164 164 163 161 160 158 155 152 150 149 148 146 148 150 151 152 153 154 151 147 148 148 148 149 149 149 150 150 150 150 154 158 163 164 164 165 167 169 172 174 172 172 173 174 173 174 174 175 176 177 180 183 184 185 186 186 186 183 182 182 182 181 180 179 180 181 184 186 184 178 177 176 176 177 174 171 167 165 163 164 165 167 170 172 175 176 178 180 182 184 185 187 188 190 191 194 195 192 189 190 189 185 182 182 184 182 179 179 180 181 182 183 184 185 191 195 196 199 200 201 201 202 203 202 201 200 202 205 208 212 216 218 219 220 221 220 222 224 225 226 227 226 227 229 229 230 230 229 229 230 230 231 230 229 229 228 229 230 230 230 232 232 230 231 232 232 231 231 231 230 230 231 230 231 231 233 234 234 235 235 235 235 236 237 237 238 238 236 235 236 235 233 234 232 230 228 225 220 215 209 206 206 206 206 204 200 200 203 204 204 204 204 203 203 205 212 215 217 217 223 226 227 227 226 227 228 229 229 229 230 231 233 235 237 238 240 242 241 241 242 241 242 242 244 246 246 248 250 251 252 255 255 255 256 256 257 258 259 259 259 259 259 258 257 257 258 258 259 259 259 259 260 259 259 259 258 258 258 259 259 257 258 259 259 259 257 256 255 255 254 253 252 251 252 253 252 255 258 257 257 254 252 249 247 245 243 243 244 243 243 243 241 239 237 236 234 231 229 226 226 227 226 226 226 225 226 230 232 233 234 236 236 236 238 241 242 244 243 242 243 243 242 241 240 241 242 242 245 246 248 252 252 249 245 244 244 246 247 249 253 255 252 250 251 249 247 248 249 252 254 256 258 261 264 265 262 259 256 254 252 250 249 248 248 249 251 255 259 265 266 262 259 261 264 267 269 266 261 256 252 249 247 246 244 241 239 237 236 238 239 238 237 237 237 237 238 240 241 243 245 246 250 254 256 256 254 252 249 247 245 245 244 244 238 233 230 226 227 233 238 241 243 242 241 243 245 245 244 242 241 240 237 236 234 233 228 228 228 218 214 214 215 217 224 230 232 233 232 231 228 225 219 215 216 218 219 224 225 223 228 236 238 237 236 236 237 237 236 236 238 239 240 242 244 245 246 246 245 244 245 245 243 242 241 241 242 243 244 244 245 246 247 249 252 253
113 115 115 115 114 115 116 117 117 117 116 117 118 120 122 122 123 120 119 120 120 121 121 120 123 123 122 122 121 122 122 122 121 122 123 124 125 125 124 126 128 130 131 131 130 131 131 130 131 132 134 135 136 137 136 134 133 133 132 133 135 132 132 132 133 133 134 135 135 135 136 136 136 137 137 138 138 137 138 139 139 138 140 140 140 141 141 141 142 141 142 143 143 143 144 144 143 144 144 145 144 144 143 144 145 148 151 154 154 154 155 155 155 156 155 155 153 154 154 155 157 159 160 159 159 158 158 159 160 159 159 160 162 164 164 164 163 163 164 166 168 167 167 168 170 172 174 174 174 174 174 173 171 168 167 166 165 163 163 162 161 159 157 154 154 154 152 152 154 154 153 153 156 158 161 161 160 159 159 159 158 157 158 158 160 163 165 167 169 171 173 176 178 179 180 182 182 182 185 185 183 182 181 181 179 179 178 174 173 174 172 171 170 171 170 169 169 170 172 172 171 173 173 173 174 172 173 173 172 170 167 164 163 163 161 158 157 155 152 150 149 147 147 149 152 154 155 156 156 155 151 150 150 148 147 148 148 148 149 149 149 152 158 162 161 161 163 166 168 170 170 171 171 172 172 173 173 173 175 176 177 180 182 184 186 186 186 186 185 184 183 182 182 182 183 183 183 186 186 184 181 179 179 180 178 176 172 170 167 166 164 165 164 166 170 172 174 177 179 181 182 183 184 185 186 188 190 188 185 184 185 185 183 181 180 179 177 178 181 182 181 181 182 182 183 191 195 198 199 200 201 201 200 200 200 199 200 202 205 207 211 213 215 217 219 221 219 221 223 223 225 226 226 227 228 228 229 229 229 229 229 230 231 230 230 230 229 229 229 228 229 230 231 231 232 233 231 230 231 231 231 230 231 230 230 231 232 234 235 235 235 235 235 235 236 238 238 238 236 236 237 236 234 234 234 232 231 230 225 218 213 209 208 210 216 215 205 200 201 203 205 204 202 203 204 208 214 218 221 221 221 225 226 226 224 225 227 227 229 230 231 233 235 237 238 239 240 243 244 243 243 242 243 243 244 246 248 249 250 251 252 255 256 255 255 257 258 258 258 259 259 258 258 258 257 258 258 258 258 259 259 259 260 258 259 259 258 258 258 258 259 257 258 259 259 258 257 256 254 254 254 253 251 250 251 251 253 256 256 257 256 252 249 246 246 244 243 242 242 242 243 243 240 238 236 235 235 235 232 229 228 225 225 225 225 226 228 231 232 233 235 236 236 236 239 241 243 245 245 245 246 246 244 244 243 244 245 246 247 248 249 251 252 249 245 243 245 247 249 250 253 255 253 252 251 251 250 250 250 252 253 256 257 260 262 265 263 258 255 252 251 250 248 247 247 248 251 253 257 260 261 261 259 261 263 266 266 265 261 256 252 248 247 245 243 240 238 236 234 235 236 235 234 235 236 237 238 240 242 244 247 249 251 253 255 254 253 251 250 248 248 247 244 241 238 233 227 226 234 240 241 242 242 242 243 246 248 248 247 244 242 240 238 238 236 234 233 234 233 225 217 213 213 215 222 227 230 233 233 232 229 222 216 215 219 223 227 231 232 229 230 234 236 237 237 235 235 236 237 238 239 240 242 243 245 246 247 247 246 245 244 243 242 242 241 241 242 242 243 243 244 245 246 247 249 251
114 114 113 113 115 116 116 117 117 117 115 116 117 118 120 120 121 121 120 121 120 121 122 121 122 122 122 122 121 121 122 122 122 122 124 124 125 125 124 127 128 129 129 129 129 129 130 131 130 131 133 134 134 134 132 133 132 132 132 133 134 131 131 132 132 133 133 134 134 134 136 136 136 136 138 138 138 138 139 138 139 139 140 140 140 141 142 141 142 143 143 143 143 143 144 144 144 144 144 145 145 144 144 144 145 147 150 153 154 153 152 153 153 153 155 155 154 155 155 155 158 160 161 161 161 160 160 162 164 165 165 165 166 167 167 168 167 165 166 168 170 169 169 170 171 172 174 175 175 175 175 175 174 170 167 167 165 162 161 161 160 159 157 155 154 153 152 153 156 157 155 155 157 159 159 160 161 161 159 158 158 158 159 158 159 164 165 168 171 173 176 176 178 180 181 183 183 183 185 185 183 183 182 181 180 178 176 173 172 172 171 169 169 169 169 168 169 171 172 172 171 172 172 173 174 173 173 175 172 169 167 164 162 161 159 157 156 154 151 150 149 149 151 152 154 156 157 158 159 158 156 157 155 153 151 150 149 150 151 150 151 154 158 161 159 158 161 164 167 167 167 168 170 170 170 171 173 174 175 177 178 180 182 183 184 185 185 184 184 185 184 184 183 184 185 184 186 187 186 185 182 180 180 181 179 176 172 171 169 168 166 164 164 165 168 171 173 176 177 179 180 181 182 182 183 184 183 183 182 181 181 180 180 180 178 177 178 181 187 190 187 186 186 185 186 189 192 197 199 200 200 200 200 198 200 202 202 204 206 207 210 212 214 216 218 219 220 220 222 222 223 223 223 225 226 227 228 229 229 230 229 230 230 230 230 230 230 229 229 228 229 230 231 233 232 231 230 230 231 231 230 229 229 229 230 231 232 233 234 234 235 236 236 235 236 237 237 237 237 237 236 235 234 235 235 234 233 231 228 224 221 215 213 216 221 220 210 202 200 202 204 202 202 204 205 209 215 220 223 223 223 224 224 225 224 225 225 226 228 229 231 232 235 237 238 238 239 242 245 244 244 243 243 245 245 247 247 248 250 250 253 256 256 255 254 256 257 258 259 259 257 258 259 257 258 258 257 258 258 257 258 259 259 258 258 259 258 257 257 257 258 257 257 257 257 256 254 254 254 253 252 252 251 251 252 252 253 253 253 254 252 249 246 245 245 244 243 242 240 240 240 241 240 238 236 235 235 234 232 230 227 224 223 224 227 229 229 231 232 233 235 236 237 237 240 241 242 245 246 247 249 250 247 245 245 245 246 248 249 250 252 253 253 250 247 245 245 247 249 251 252 254 254 253 252 252 253 253 252 254 256 257 257 259 261 264 265 261 258 255 252 252 249 248 248 248 251 253 254 254 256 258 257 260 262 263 263 263 260 256 252 249 246 245 242 239 238 235 234 233 233 232 232 233 235 236 237 241 244 246 248 250 252 253 253 251 248 248 248 248 247 245 240 237 236 233 229 229 236 240 240 240 241 242 244 246 248 248 246 244 242 240 240 238 238 235 235 235 235 232 223 217 215 215 217 220 226 230 231 231 231 225 219 217 222 229 234 235 234 233 234 235 236 237 237 236 235 237 239 240 240 241 243 244 244 246 248 247 245 245 244 242 243 242 241 241 241 242 242 242 243 244 246 247 249 250
115 115 113 115 117 118 118 117 116 116 116 117 117 118 120 120 120 121 121 121 119 119 121 120 121 121 122 122 122 122 123 123 124 125 125 124 124 124 125 127 128 128 129 129 130 130 131 131 131 131 131 133 133 132 131 132 132 132 132 133 133 132 132 132 133 133 134 135 135 135 136 136 137 138 139 138 138 139 139 139 139 140 141 140 140 141 142 142 142 142 142 143 143 143 144 145 144 143 144 145 145 146 146 145 145 146 149 151 152 151 149 149 150 151 153 155 155 155 155 155 156 158 160 160 160 159 160 161 162 164 167 166 166 167 168 171 171 170 169 171 172 172 171 172 174 174 176 177 177 177 177 177 176 172 170 170 167 162 161 161 159 158 157 157 155 153 153 154 156 158 157 157 158 160 160 161 161 162 160 159 159 159 159 158 159 163 165 168 172 174 175 175 177 180 182 184 184 183 184 186 184 184 183 181 180 178 176 173 171 171 171 170 169 168 169 168 169 171 172 172 172 173 173 173 175 175 175 174 172 168 164 163 161 159 158 156 155 152 150 150 149 150 152 153 154 157 158 160 161 162 162 160 158 157 155 154 153 153 154 153 151 154 159 160 159 158 159 162 165 166 165 166 168 169 169 172 174 176 178 178 179 181 183 183 183 184 185 183 184 184 184 184 184 185 184 185 186 186 186 186 184 183 182 182 179 176 173 171 170 168 167 166 164 164 167 170 172 173 175 176 178 179 179 180 180 180 179 180 179 178 178 177 176 177 178 180 186 191 194 195 194 193 194 194 193 193 193 197 199 200 200 200 199 199 202 203 204 205 207 209 210 212 214 216 218 219 219 220 221 222 222 222 223 224 225 226 229 229 229 229 229 230 229 229 229 229 229 229 229 229 229 230 232 233 232 231 230 230 230 230 229 229 228 228 229 230 231 232 233 233 235 235 235 237 237 237 238 238 238 238 237 236 236 236 234 233 233 231 228 225 223 220 219 222 225 223 214 203 200 201 202 202 202 205 209 215 220 223 224 224 224 224 225 226 225 225 225 226 226 229 231 232 234 236 237 238 240 241 243 244 245 245 245 247 247 247 248 249 250 251 253 256 256 255 255 257 257 257 258 257 257 258 257 257 258 258 257 257 258 257 257 258 258 257 258 258 257 256 257 257 257 257 256 256 256 255 253 253 253 253 252 252 251 252 252 251 250 250 250 249 248 247 245 243 243 242 242 243 241 240 239 238 239 236 234 234 234 233 232 230 227 224 223 224 227 229 230 231 232 234 235 236 236 238 241 241 243 245 246 246 248 249 247 246 246 245 244 247 249 250 253 255 255 252 249 248 246 247 250 252 253 254 255 256 255 255 256 256 253 255 258 259 259 260 262 264 265 264 262 258 253 252 250 249 249 249 251 251 251 252 253 255 257 260 262 261 262 262 259 255 251 248 245 243 240 238 236 234 232 231 230 230 230 231 232 236 239 243 246 247 247 248 250 251 250 249 247 245 246 245 245 243 239 237 238 237 234 231 234 238 238 238 240 241 243 246 246 246 245 243 242 241 241 239 238 236 236 236 236 233 228 223 220 215 215 216 219 223 224 228 230 227 220 216 218 225 232 234 234 233 234 234 236 236 236 236 236 237 239 240 241 241 242 243 244 245 247 246 245 245 244 243 243 242 240 240 241 241 242 241 242 243 245 247 248 249
